# .PCD v0.7 - Point Cloud Data file format
VERSION 0.7
FIELDS x y z rgb
SIZE 4 4 4 4
TYPE F F F F
COUNT 1 1 1 1
WIDTH 1013
HEIGHT 1
VIEWPOINT 0 0 0 1 0 0 0
POINTS 1013
DATA ascii
-0.6914897 0.3068971 1.435436 7.3756504e-39
-0.68630928 0.30689681 1.4354345 7.3756504e-39
-0.68242401 0.30689657 1.4354334 7.3756504e-39
-0.67853868 0.30689633 1.4354322 7.3756504e-39
-0.67335832 0.30689597 1.4354308 7.3756504e-39
-0.66817796 0.30689567 1.4354293 7.3756504e-39
-0.6629976 0.30689538 1.4354279 7.3756504e-39
-0.65781724 0.30689508 1.4354264 7.3756504e-39
-0.65263689 0.30689472 1.4354248 7.3756504e-39
-0.64745653 0.30689439 1.4354233 7.3756504e-39
-0.64227623 0.30689406 1.4354218 7.3756504e-39
-0.63709593 0.30689377 1.4354204 7.3756504e-39
-0.63191563 0.30689347 1.4354188 7.3756504e-39
-0.62673533 0.30689314 1.4354174 7.3756504e-39
-0.62155509 0.30689281 1.435416 7.3756504e-39
-0.61637485 0.30689251 1.4354144 7.3756504e-39
-0.61248964 0.30689228 1.4354134 7.3756504e-39
-0.60860443 0.30689204 1.4354123 7.3756504e-39
-0.60342419 0.30689174 1.4354107 7.3756504e-39
-0.59824395 0.30689138 1.4354092 7.3756504e-39
-0.59306371 0.30689105 1.4354076 7.3756504e-39
-0.58788353 0.30689073 1.4354062 7.3756504e-39
-0.58270335 0.30689043 1.4354048 7.3756504e-39
-0.57752323 0.30689013 1.4354033 7.3756504e-39
-0.57234299 0.3068898 1.4354018 7.3756504e-39
-0.56716287 0.30688947 1.4354004 7.3756504e-39
-0.56198269 0.30688918 1.4353988 7.3756504e-39
-0.55680257 0.30688888 1.4353974 7.3756504e-39
-0.55162245 0.30688858 1.435396 7.3756504e-39
-0.54644227 0.30688822 1.4353943 7.3756504e-39
-0.54255718 0.30688795 1.4353932 7.3756504e-39
-0.53867215 0.30688775 1.4353921 7.3756504e-39
-0.53349203 0.30688739 1.4353906 7.3756504e-39
-0.52831197 0.30688709 1.4353892 7.3756504e-39
-0.52313197 0.30688679 1.4353877 7.3756504e-39
-0.51795185 0.30688646 1.4353862 7.3756504e-39
-0.51277184 0.30688614 1.4353848 7.3756504e-39
-0.50759178 0.30688584 1.4353833 7.3756504e-39
-0.50241172 0.30688554 1.4353818 7.3756504e-39
-0.49723175 0.30688524 1.4353803 7.3756504e-39
-0.49205172 0.30688488 1.4353788 7.3756504e-39
-0.48687169 0.30688453 1.4353772 7.3756504e-39
-0.48169172 0.30688423 1.4353758 7.3756504e-39
-0.47651172 0.30688393 1.4353743 7.3756504e-39
-0.47133178 0.30688363 1.4353728 7.3756504e-39
-0.46744683 0.30688339 1.4353718 7.3756504e-39
-0.46356186 0.30688313 1.4353707 7.3756504e-39
-0.45838195 0.3068828 1.4353691 7.3756504e-39
-0.45320201 0.3068825 1.4353677 7.3756504e-39
-0.4480221 0.3068822 1.4353662 7.3756504e-39
-0.44284222 0.30688187 1.4353647 7.3756504e-39
-0.43766233 0.30688155 1.4353633 7.3756504e-39
-0.43248239 0.30688119 1.4353616 7.3756504e-39
-0.42730254 0.30688089 1.4353602 7.3756504e-39
-0.42212266 0.30688059 1.4353588 7.3756504e-39
-0.41694283 0.3068803 1.4353572 7.3756504e-39
-0.41176301 0.30687994 1.4353558 7.3756504e-39
-0.40658316 0.30687964 1.4353542 7.3756504e-39
-0.40140334 0.30687934 1.4353528 7.3756504e-39
-0.39751849 0.3068791 1.4353517 7.3756504e-39
-0.39363363 0.30687886 1.4353507 7.3756504e-39
-0.38845384 0.30687854 1.4353491 7.3756504e-39
-0.38327408 0.30687821 1.4353477 7.3756504e-39
-0.37809426 0.30687788 1.4353461 7.3756504e-39
-0.37291452 0.30687755 1.4353446 7.3756504e-39
-0.36773479 0.30687726 1.4353431 7.3756504e-39
-0.36255503 0.30687696 1.4353416 7.3756504e-39
-0.35737532 0.3068766 1.4353402 7.3756504e-39
-0.35219562 0.3068763 1.4353387 7.3756504e-39
-0.34701589 0.306876 1.4353372 7.3756504e-39
-0.34183621 0.30687571 1.4353358 7.3756504e-39
-0.33665651 0.30687538 1.4353342 7.3756504e-39
-0.33147684 0.30687505 1.4353328 7.3756504e-39
-0.32629719 0.30687475 1.4353313 7.3756504e-39
-0.3224124 0.30687445 1.43533 7.3756504e-39
-0.3185277 0.30687422 1.435329 7.3756504e-39
-0.31334805 0.30687392 1.4353275 7.3756504e-39
-0.30816844 0.30687362 1.4353261 7.3756504e-39
-0.30298883 0.30687326 1.4353245 7.3756504e-39
-0.29780924 0.30687296 1.4353231 7.3756504e-39
-0.29262963 0.30687267 1.4353216 7.3756504e-39
-0.28745005 0.30687237 1.4353201 7.3756504e-39
-0.28227049 0.30687204 1.4353187 7.3756504e-39
-0.27709091 0.30687171 1.4353172 7.3756504e-39
-0.27191138 0.30687141 1.4353157 7.3756504e-39
-0.26673183 0.30687106 1.4353142 7.3756504e-39
-0.26155227 0.30687076 1.4353126 7.3756504e-39
-0.25637275 0.30687046 1.4353112 7.3756504e-39
-0.25248814 0.30687019 1.4353101 7.3756504e-39
-0.24860349 0.30686992 1.4353089 7.3756504e-39
-0.24342403 0.30686963 1.4353075 7.3756504e-39
-0.23824455 0.30686933 1.4353061 7.3756504e-39
-0.23306507 0.30686903 1.4353045 7.3756504e-39
-0.22788562 0.30686867 1.4353031 7.3756504e-39
-0.22270617 0.30686837 1.4353015 7.3756504e-39
-0.21752673 0.30686808 1.4353001 7.3756504e-39
-0.2123473 0.30686772 1.4352986 7.3756504e-39
-0.20716786 0.30686742 1.435297 7.3756504e-39
-0.20198846 0.30686709 1.4352956 7.3756504e-39
-0.19680908 0.30686677 1.4352942 7.3756504e-39
-0.19162968 0.30686647 1.4352926 7.3756504e-39
-0.18645032 0.30686617 1.4352912 7.3756504e-39
-0.18256581 0.30686593 1.4352901 7.3756504e-39
-0.17868128 0.30686569 1.4352889 7.3756504e-39
-0.17350194 0.30686533 1.4352875 7.3756504e-39
-0.16832259 0.30686504 1.435286 7.3756504e-39
-0.16314328 0.30686474 1.4352845 7.3756504e-39
-0.15796396 0.30686441 1.4352829 7.3756504e-39
-0.15278465 0.30686408 1.4352815 7.3756504e-39
-0.14760534 0.30686375 1.43528 7.3756504e-39
-0.14242607 0.30686343 1.4352785 7.3756504e-39
-0.1372468 0.30686313 1.435277 7.3756504e-39
-0.13206753 0.30686283 1.4352756 7.3756504e-39
-0.1268883 0.30686253 1.4352741 7.3756504e-39
-0.12170905 0.30686218 1.4352727 7.3756504e-39
-0.11652982 0.30686188 1.4352711 7.3756504e-39
-0.11135061 0.30686158 1.4352697 7.3756504e-39
-0.1074662 0.30686131 1.4352685 7.3756504e-39
-0.1035818 0.30686107 1.4352674 7.3756504e-39
-0.098402604 0.30686074 1.4352659 7.3756504e-39
-0.093223423 0.30686042 1.4352643 7.3756504e-39
-0.088044256 0.30686009 1.4352629 7.3756504e-39
-0.082865089 0.30685979 1.4352615 7.3756504e-39
-0.077685945 0.30685949 1.4352599 7.3756504e-39
-0.072506808 0.3068592 1.4352585 7.3756504e-39
-0.067327678 0.30685884 1.4352571 7.3756504e-39
-0.062148564 0.30685854 1.4352555 7.3756504e-39
-0.056969456 0.30685824 1.4352541 7.3756504e-39
-0.051790364 0.30685791 1.4352527 7.3756504e-39
-0.046611276 0.30685759 1.435251 7.3756504e-39
-0.041432202 0.30685723 1.4352496 7.3756504e-39
-0.037547905 0.30685702 1.4352485 7.3756504e-39
-0.033663612 0.30685675 1.4352473 7.3756504e-39
-0.028484566 0.30685645 1.4352459 7.3756504e-39
-0.023305532 0.30685616 1.4352443 7.3756504e-39
-0.018126504 0.30685583 1.4352429 7.3756504e-39
-0.01294749 0.3068555 1.4352415 7.3756504e-39
-0.0077684866 0.3068552 1.43524 7.3756504e-39
-0.0025894931 0.3068549 1.4352385 7.3756504e-39
0.0025894898 0.30685461 1.4352371 7.3756504e-39
0.0077684615 0.30685425 1.4352355 7.3756504e-39
0.012947422 0.30685389 1.435234 7.3756504e-39
0.018126372 0.30685359 1.4352325 7.3756504e-39
0.023305312 0.30685329 1.435231 7.3756504e-39
0.028484242 0.306853 1.4352295 7.3756504e-39
0.033663161 0.30685267 1.4352281 7.3756504e-39
0.037547342 0.3068524 1.4352269 7.3756504e-39
0.041431516 0.30685216 1.4352258 7.3756504e-39
0.046610411 0.30685186 1.4352244 7.3756504e-39
0.051789291 0.30685157 1.4352229 7.3756504e-39
0.056968164 0.30685127 1.4352214 7.3756504e-39
0.062147021 0.30685091 1.4352199 7.3756504e-39
0.06732586 0.30685055 1.4352183 7.3756504e-39
0.072504707 0.30685025 1.4352169 7.3756504e-39
0.077683531 0.30684996 1.4352155 7.3756504e-39
0.082862347 0.30684966 1.4352139 7.3756504e-39
0.088041157 0.30684933 1.4352125 7.3756504e-39
0.093219951 0.306849 1.4352109 7.3756504e-39
0.097104043 0.30684876 1.4352099 7.3756504e-39
0.098103479 -0.37148517 1.4499817 5.3473465e-39
0.098102048 -0.36755568 1.4499606 5.3473465e-39
0.09810064 -0.36362636 1.4499397 5.3473465e-39
0.09809874 -0.35838741 1.4499117 5.3473465e-39
0.098096848 -0.35314867 1.4498837 5.3473465e-39
0.098094955 -0.34791011 1.4498558 5.3473465e-39
0.098093063 -0.34267175 1.4498277 5.3473465e-39
0.09809117 -0.33743364 1.4497998 5.3473465e-39
0.098089278 -0.3321957 1.4497719 5.3473465e-39
0.098087385 -0.32695797 1.4497439 5.3473465e-39
0.098085493 -0.32172042 1.4497159 5.3473465e-39
0.0980836 -0.31648308 1.4496878 5.3473465e-39
0.098082185 -0.31255522 1.449667 5.3473465e-39
0.098080754 -0.30862746 1.4496459 5.3473465e-39
0.098078869 -0.30339065 1.449618 5.3473465e-39
0.098076984 -0.29815406 1.4495901 5.3473465e-39
0.098075092 -0.29291761 1.4495621 5.3473465e-39
0.098073192 -0.28768137 1.4495341 5.3473465e-39
0.098071307 -0.28244537 1.4495062 5.3473465e-39
0.098069414 -0.27720952 1.4494781 5.3473465e-39
0.098067515 -0.27197391 1.4494501 5.3473465e-39
0.09806563 -0.26673853 1.4494222 5.3473465e-39
0.098063737 -0.26150334 1.4493943 5.3473465e-39
0.098062314 -0.257577 1.4493732 5.3473465e-39
0.098060898 -0.25365087 1.4493524 5.3473465e-39
0.098059006 -0.24841616 1.4493244 5.3473465e-39
0.098057114 -0.24318165 1.4492965 5.3473465e-39
0.098055221 -0.23794734 1.4492685 5.3473465e-39
0.098053336 -0.23271325 1.4492404 5.3473465e-39
0.098051444 -0.22747937 1.4492126 5.3473465e-39
0.098049551 -0.22224565 1.4491847 5.3473465e-39
0.098047659 -0.21701217 1.4491568 5.3473465e-39
0.098045766 -0.21177886 1.4491286 5.3473465e-39
0.098043874 -0.20654577 1.4491007 5.3473465e-39
0.098041989 -0.20131288 1.4490728 5.3473465e-39
0.098040566 -0.19738834 1.4490519 5.3473465e-39
0.09803915 -0.19346392 1.4490309 5.3473465e-39
0.098037258 -0.18823156 1.449003 5.3473465e-39
0.098035365 -0.18299937 1.4489751 5.3473465e-39
0.09803348 -0.17776738 1.4489471 5.3473465e-39
0.098031595 -0.1725356 1.4489192 5.3473465e-39
0.098029695 -0.16730402 1.4488912 5.3473465e-39
0.098027803 -0.16207264 1.4488633 5.3473465e-39
0.098025918 -0.15684147 1.4488354 5.3473465e-39
0.098024026 -0.15161049 1.4488075 5.3473465e-39
0.098022133 -0.14637974 1.4487795 5.3473465e-39
0.098020718 -0.14245678 1.4487585 5.3473465e-39
0.098019302 -0.13853395 1.4487376 5.3473465e-39
0.098017409 -0.13330369 1.4487096 5.3473465e-39
0.098015524 -0.12807363 1.4486817 5.3473465e-39
0.098013625 -0.12284376 1.4486537 5.3473465e-39
0.09801174 -0.1176141 1.4486258 5.3473465e-39
0.098009855 -0.11238463 1.4485979 5.3473465e-39
0.09800797 -0.10715538 1.44857 5.3473465e-39
0.09800607 -0.10192633 1.4485421 5.3473465e-39
0.098004185 -0.096697465 1.4485141 5.3473465e-39
0.0980023 -0.091468811 1.4484862 5.3473465e-39
0.098000884 -0.087547459 1.4484653 5.3473465e-39
0.097999461 -0.083626211 1.4484444 5.3473465e-39
0.097997576 -0.078398064 1.4484165 5.3473465e-39
0.097995684 -0.073170118 1.4483885 5.3473465e-39
0.097993791 -0.067942366 1.4483604 5.3473465e-39
0.097991899 -0.062714823 1.4483325 5.3473465e-39
0.097990021 -0.05748748 1.4483047 5.3473465e-39
0.097988129 -0.052260343 1.4482768 5.3473465e-39
0.097986236 -0.047033399 1.4482489 5.3473465e-39
0.097984351 -0.041806661 1.448221 5.3473465e-39
0.097982466 -0.036580127 1.4481931 5.3473465e-39
0.097980574 -0.031353787 1.4481652 5.3473465e-39
0.097979158 -0.027434165 1.4481442 5.3473465e-39
0.097977735 -0.023514662 1.4481232 5.3473465e-39
0.09797585 -0.018288832 1.4480953 5.3473465e-39
0.097973973 -0.013063202 1.4480674 5.3473465e-39
0.09797208 -0.0078377724 1.4480395 5.3473465e-39
0.097970188 -0.0026125447 1.4480116 5.3473465e-39
0.097968303 0.0026124816 1.4479837 5.3473465e-39
0.097966418 0.0078373067 1.4479558 5.3473465e-39
0.097964525 0.013061929 1.447928 5.3473465e-39
0.097962633 0.018286351 1.4479001 5.3473465e-39
0.097960755 0.023510573 1.4478722 5.3473465e-39
0.097959332 0.027428612 1.4478512 5.3473465e-39
0.097957924 0.03134653 1.4478303 5.3473465e-39
0.097956032 0.036570244 1.4478023 5.3473465e-39
0.097954139 0.041793764 1.4477744 5.3473465e-39
0.097952254 0.047017075 1.4477465 5.3473465e-39
0.097950369 0.052240193 1.4477186 5.3473465e-39
0.097948484 0.057463102 1.4476908 5.3473465e-39
0.097946592 0.06268581 1.4476628 5.3473465e-39
0.097944707 0.067908332 1.4476351 5.3473465e-39
0.097942822 0.073130637 1.4476072 5.3473465e-39
0.097940929 0.078352734 1.4475791 5.3473465e-39
0.097939044 0.083574653 1.4475514 5.3473465e-39
0.097937629 0.087490946 1.4475304 5.3473465e-39
0.097936213 0.091407128 1.4475095 5.3473465e-39
0.097934335 0.096628532 1.4474816 5.3473465e-39
0.097932443 0.10184973 1.4474537 5.3473465e-39
0.097930551 0.10707073 1.4474258 5.3473465e-39
0.097928673 0.11229153 1.4473979 5.3473465e-39
0.097926781 0.11751213 1.4473701 5.3473465e-39
0.097924896 0.12273253 1.4473422 5.3473465e-39
0.097923011 0.12795272 1.4473143 5.3473465e-39
0.097921126 0.13317272 1.4472865 5.3473465e-39
0.097919241 0.13839251 1.4472586 5.3473465e-39
0.097917348 0.14361212 1.4472307 5.3473465e-39
0.09791594 0.14752668 1.4472098 5.3473465e-39
0.097914524 0.15144113 1.4471889 5.3473465e-39
0.097912639 0.15666021 1.447161 5.3473465e-39
0.097910747 0.16187909 1.4471331 5.3473465e-39
0.097908869 0.16709779 1.4471053 5.3473465e-39
0.097906977 0.17231628 1.4470774 5.3473465e-39
0.097905099 0.17753458 1.4470496 5.3473465e-39
0.097903207 0.18275265 1.4470217 5.3473465e-39
0.097901322 0.18797053 1.4469938 5.3473465e-39
0.097899437 0.19318822 1.4469659 5.3473465e-39
0.097897552 0.19840568 1.446938 5.3473465e-39
0.097895667 0.203623 1.4469103 5.3473465e-39
0.097894251 0.20753582 1.4468893 5.3473465e-39
0.097892836 0.21144852 1.4468684 5.3473465e-39
0.097890958 0.21666531 1.4468405 5.3473465e-39
0.097889066 0.22188188 1.4468126 5.3473465e-39
0.097887188 0.22709826 1.4467849 5.3473465e-39
0.097885296 0.23231444 1.446757 5.3473465e-39
0.097883418 0.23753041 1.4467292 5.3473465e-39
0.097881541 0.2427462 1.4467013 5.3473465e-39
0.097879648 0.24796176 1.4466734 5.3473465e-39
0.097877756 0.25317714 1.4466455 5.3473465e-39
0.097875878 0.25839233 1.4466178 5.3473465e-39
0.097873986 0.26360726 1.4465898 5.3473465e-39
0.097872578 0.26751837 1.446569 5.3473465e-39
0.097871169 0.27142936 1.4465482 5.3473465e-39
0.097869284 0.27664384 1.4465203 5.3473465e-39
0.097867399 0.28185809 1.4464924 5.3473465e-39
0.097865522 0.28707218 1.4464645 5.3473465e-39
0.097863629 0.29228604 1.4464366 5.3473465e-39
0.097861744 0.29749972 1.4464087 5.3473465e-39
0.097859859 0.30271316 1.4463811 5.3473465e-39
-0.8334924 0.30700737 1.4481726 7.3756504e-39
-0.82826591 0.30700707 1.4481711 7.3756504e-39
-0.82303929 0.30700672 1.4481695 7.3756504e-39
-0.8178128 0.30700639 1.448168 7.3756504e-39
-0.81258631 0.30700606 1.4481665 7.3756504e-39
-0.80735981 0.30700576 1.4481649 7.3756504e-39
-0.80213338 0.30700547 1.4481635 7.3756504e-39
-0.79690695 0.30700511 1.448162 7.3756504e-39
-0.79168046 0.30700481 1.4481604 7.3756504e-39
-0.78645408 0.30700451 1.448159 7.3756504e-39
-0.7825343 0.30700427 1.4481579 7.3756504e-39
-0.7786144 0.30700403 1.4481567 7.3756504e-39
-0.77338803 0.30700371 1.4481552 7.3756504e-39
-0.76816159 0.30700338 1.4481536 7.3756504e-39
-0.76293516 0.30700305 1.4481521 7.3756504e-39
-0.75770885 0.30700272 1.4481506 7.3756504e-39
-0.75248247 0.3070024 1.4481491 7.3756504e-39
-0.74725616 0.30700207 1.4481475 7.3756504e-39
-0.74202979 0.30700177 1.4481461 7.3756504e-39
-0.73680347 0.30700144 1.4481447 7.3756504e-39
-0.73157716 0.30700111 1.4481431 7.3756504e-39
-0.72635078 0.30700082 1.4481416 7.3756504e-39
-0.72243112 0.30700058 1.4481405 7.3756504e-39
-0.7185114 0.30700034 1.4481394 7.3756504e-39
-0.71328509 0.30699998 1.4481378 7.3756504e-39
-0.70805883 0.30699968 1.4481362 7.3756504e-39
-0.70283258 0.30699936 1.4481347 7.3756504e-39
-0.69760633 0.30699903 1.4481332 7.3756504e-39
-0.69238007 0.30699873 1.4481318 7.3756504e-39
-0.68715388 0.3069984 1.4481302 7.3756504e-39
-0.68192762 0.30699807 1.4481287 7.3756504e-39
-0.67670149 0.30699778 1.4481273 7.3756504e-39
-0.67147523 0.30699742 1.4481257 7.3756504e-39
-0.66755563 0.30699721 1.4481246 7.3756504e-39
-0.66363597 0.30699694 1.4481235 7.3756504e-39
-0.65840983 0.30699664 1.4481219 7.3756504e-39
-0.65318364 0.30699629 1.4481204 7.3756504e-39
-0.64795744 0.30699599 1.4481189 7.3756504e-39
-0.64273137 0.30699569 1.4481174 7.3756504e-39
-0.63750523 0.30699533 1.4481158 7.3756504e-39
-0.63227916 0.30699503 1.4481144 7.3756504e-39
-0.62705302 0.30699474 1.4481128 7.3756504e-39
-0.62182695 0.30699441 1.4481113 7.3756504e-39
-0.61660087 0.30699408 1.4481099 7.3756504e-39
-0.6113748 0.30699375 1.4481084 7.3756504e-39
-0.60745525 0.30699351 1.4481072 7.3756504e-39
-0.60353571 0.30699325 1.4481061 7.3756504e-39
-0.59830964 0.30699295 1.4481045 7.3756504e-39
-0.59308362 0.30699259 1.448103 7.3756504e-39
-0.5878576 0.30699229 1.4481015 7.3756504e-39
-0.58263159 0.30699199 1.4481 7.3756504e-39
-0.57740557 0.30699167 1.4480984 7.3756504e-39
-0.57217962 0.30699134 1.448097 7.3756504e-39
-0.56695366 0.30699104 1.4480956 7.3756504e-39
-0.5617277 0.30699074 1.448094 7.3756504e-39
-0.55650175 0.30699039 1.4480925 7.3756504e-39
-0.55258226 0.30699018 1.4480914 7.3756504e-39
-0.54866278 0.30698991 1.4480902 7.3756504e-39
-0.54343688 0.30698961 1.4480886 7.3756504e-39
-0.53821093 0.30698925 1.4480871 7.3756504e-39
-0.53298509 0.30698892 1.4480855 7.3756504e-39
-0.52775919 0.3069886 1.4480841 7.3756504e-39
-0.5225333 0.3069883 1.4480827 7.3756504e-39
-0.5173074 0.306988 1.4480811 7.3756504e-39
-0.5120815 0.30698764 1.4480796 7.3756504e-39
-0.50685573 0.30698735 1.4480782 7.3756504e-39
-0.50162983 0.30698705 1.4480766 7.3756504e-39
-0.49640405 0.30698672 1.4480751 7.3756504e-39
-0.49248469 0.30698648 1.448074 7.3756504e-39
-0.48856527 0.30698621 1.4480727 7.3756504e-39
-0.48333949 0.30698591 1.4480712 7.3756504e-39
-0.47811371 0.30698559 1.4480698 7.3756504e-39
-0.47288793 0.30698526 1.4480683 7.3756504e-39
-0.46766216 0.30698493 1.4480667 7.3756504e-39
-0.46243644 0.3069846 1.4480653 7.3756504e-39
-0.45721066 0.30698431 1.4480637 7.3756504e-39
-0.45198494 0.30698398 1.4480622 7.3756504e-39
-0.44675922 0.30698365 1.4480608 7.3756504e-39
-0.44153351 0.30698335 1.4480592 7.3756504e-39
-0.43630779 0.30698302 1.4480577 7.3756504e-39
-0.43238848 0.30698276 1.4480565 7.3756504e-39
-0.42846924 0.30698252 1.4480554 7.3756504e-39
-0.42324355 0.30698222 1.4480538 7.3756504e-39
-0.41801792 0.30698192 1.4480524 7.3756504e-39
-0.41279224 0.30698156 1.4480509 7.3756504e-39
-0.40756661 0.30698127 1.4480493 7.3756504e-39
-0.40234095 0.30698094 1.4480479 7.3756504e-39
-0.39711535 0.30698061 1.4480463 7.3756504e-39
-0.39188975 0.30698031 1.4480449 7.3756504e-39
-0.38666415 0.30697995 1.4480433 7.3756504e-39
-0.38143855 0.30697966 1.4480418 7.3756504e-39
-0.37751934 0.30697939 1.4480406 7.3756504e-39
-0.37360018 0.30697918 1.4480395 7.3756504e-39
-0.36837462 0.30697882 1.448038 7.3756504e-39
-0.36314905 0.30697852 1.4480364 7.3756504e-39
-0.35792354 0.30697823 1.448035 7.3756504e-39
-0.352698 0.3069779 1.4480336 7.3756504e-39
-0.34747249 0.30697757 1.448032 7.3756504e-39
-0.34224695 0.30697727 1.4480305 7.3756504e-39
-0.33702147 0.30697694 1.448029 7.3756504e-39
-0.33179599 0.30697662 1.4480275 7.3756504e-39
-0.32657051 0.30697629 1.4480259 7.3756504e-39
-0.32134503 0.30697596 1.4480244 7.3756504e-39
-0.31742594 0.30697572 1.4480232 7.3756504e-39
-0.31350687 0.30697548 1.4480221 7.3756504e-39
-0.30828142 0.30697516 1.4480207 7.3756504e-39
-0.30305603 0.30697483 1.4480191 7.3756504e-39
-0.29783058 0.30697453 1.4480176 7.3756504e-39
-0.29260519 0.3069742 1.4480162 7.3756504e-39
-0.2873798 0.30697387 1.4480146 7.3756504e-39
-0.28215444 0.30697358 1.4480131 7.3756504e-39
-0.27692908 0.30697328 1.4480116 7.3756504e-39
-0.27170372 0.30697292 1.4480101 7.3756504e-39
-0.26647836 0.30697262 1.4480085 7.3756504e-39
-0.26255932 0.30697235 1.4480073 7.3756504e-39
-0.25864035 0.30697215 1.4480063 7.3756504e-39
-0.25341502 0.30697179 1.4480047 7.3756504e-39
-0.24818972 0.30697149 1.4480033 7.3756504e-39
-0.24296442 0.30697113 1.4480017 7.3756504e-39
-0.23773912 0.30697083 1.4480002 7.3756504e-39
-0.23251384 0.30697054 1.4479988 7.3756504e-39
-0.22728857 0.30697018 1.4479972 7.3756504e-39
-0.22206333 0.30696988 1.4479958 7.3756504e-39
-0.21683808 0.30696958 1.4479942 7.3756504e-39
-0.21161282 0.30696923 1.4479926 7.3756504e-39
-0.20638761 0.30696893 1.4479911 7.3756504e-39
-0.20246869 0.30696866 1.4479899 7.3756504e-39
-0.19854979 0.30696845 1.4479889 7.3756504e-39
-0.1933246 0.30696812 1.4479873 7.3756504e-39
-0.18809941 0.30696779 1.4479859 7.3756504e-39
-0.18287425 0.3069675 1.4479845 7.3756504e-39
-0.17764908 0.30696714 1.4479829 7.3756504e-39
-0.17242393 0.30696684 1.4479814 7.3756504e-39
-0.16719878 0.30696651 1.4479799 7.3756504e-39
-0.16197366 0.30696619 1.4479784 7.3756504e-39
-0.15674853 0.30696589 1.4479768 7.3756504e-39
-0.15152341 0.30696553 1.4479753 7.3756504e-39
-0.14760458 0.30696529 1.4479741 7.3756504e-39
-0.14368579 0.30696505 1.447973 7.3756504e-39
-0.1384607 0.30696476 1.4479716 7.3756504e-39
-0.13323563 0.30696446 1.44797 7.3756504e-39
-0.12801057 0.3069641 1.4479685 7.3756504e-39
-0.12278552 0.3069638 1.4479671 7.3756504e-39
-0.11756048 0.3069635 1.4479655 7.3756504e-39
-0.11233546 0.30696315 1.447964 7.3756504e-39
-0.10711044 0.30696285 1.4479625 7.3756504e-39
-0.10188542 0.30696249 1.4479609 7.3756504e-39
-0.096660435 0.30696219 1.4479594 7.3756504e-39
-0.091435447 0.30696183 1.4479579 7.3756504e-39
-0.087516718 0.30696163 1.4479568 7.3756504e-39
-0.083597988 0.30696136 1.4479556 7.3756504e-39
-0.078373045 0.30696106 1.4479542 7.3756504e-39
-0.073148094 0.30696076 1.4479526 7.3756504e-39
-0.067923158 0.30696043 1.4479511 7.3756504e-39
-0.062698238 0.30696011 1.4479496 7.3756504e-39
-0.057473324 0.30695981 1.4479481 7.3756504e-39
-0.052248426 0.30695951 1.4479467 7.3756504e-39
-0.047023527 0.30695915 1.4479451 7.3756504e-39
-0.041798647 0.30695882 1.4479434 7.3756504e-39
-0.036573779 0.3069585 1.447942 7.3756504e-39
-0.031348921 0.30695817 1.4479406 7.3756504e-39
-0.027430285 0.30695793 1.4479394 7.3756504e-39
-0.023511654 0.30695769 1.4479382 7.3756504e-39
-0.018286824 0.30695736 1.4479368 7.3756504e-39
-0.013062003 0.30695707 1.4479353 7.3756504e-39
-0.007837194 0.30695677 1.4479338 7.3756504e-39
-0.0026123954 0.30695641 1.4479322 7.3756504e-39
0.0026123922 0.30695611 1.4479308 7.3756504e-39
0.0078371689 0.30695581 1.4479293 7.3756504e-39
0.013061933 0.30695546 1.4479277 7.3756504e-39
0.018286688 0.30695516 1.4479262 7.3756504e-39
0.023511432 0.3069548 1.4479246 7.3756504e-39
0.027429983 0.30695459 1.4479235 7.3756504e-39
0.031348526 0.30695435 1.4479225 7.3756504e-39
0.036573246 0.30695403 1.4479209 7.3756504e-39
0.041797951 0.30695367 1.4479194 7.3756504e-39
0.047022648 0.30695337 1.4479179 7.3756504e-39
0.052247331 0.30695307 1.4479164 7.3756504e-39
0.057472005 0.30695274 1.4479148 7.3756504e-39
0.062696666 0.30695242 1.4479134 7.3756504e-39
0.067921311 0.30695206 1.4479117 7.3756504e-39
0.073145956 0.30695176 1.4479103 7.3756504e-39
0.078370586 0.30695146 1.4479088 7.3756504e-39
0.083595201 0.30695114 1.4479072 7.3756504e-39
0.087513655 0.3069509 1.4479061 7.3756504e-39
0.091432109 0.30695069 1.4479051 7.3756504e-39
0.096604511 0.30678678 1.4471321 6.8224766e-39
0.098195851 -0.62714416 1.451347 5.3473465e-39
0.098194435 -0.62320733 1.451326 5.3473465e-39
0.098192543 -0.61795843 1.451298 5.3473465e-39
0.098190643 -0.61270964 1.45127 5.3473465e-39
0.098188743 -0.60746104 1.451242 5.3473465e-39
0.098186843 -0.60221267 1.4512138 5.3473465e-39
0.098184951 -0.59696448 1.4511858 5.3473465e-39
0.098183051 -0.59171653 1.4511578 5.3473465e-39
0.098181158 -0.58646882 1.4511299 5.3473465e-39
0.098179735 -0.58253312 1.4511088 5.3473465e-39
0.098178312 -0.57859755 1.4510877 5.3473465e-39
0.09817642 -0.57335031 1.4510597 5.3473465e-39
0.09817452 -0.56810319 1.4510317 5.3473465e-39
0.09817262 -0.56285638 1.4510037 5.3473465e-39
0.098170727 -0.55760974 1.4509757 5.3473465e-39
0.098168835 -0.55236328 1.4509476 5.3473465e-39
0.098166943 -0.54711705 1.4509196 5.3473465e-39
0.098165043 -0.54187107 1.4508916 5.3473465e-39
0.098163143 -0.53662521 1.4508636 5.3473465e-39
0.09816125 -0.53137958 1.4508356 5.3473465e-39
0.098159827 -0.52744544 1.4508145 5.3473465e-39
0.098158404 -0.52351153 1.4507935 5.3473465e-39
0.098156512 -0.51826638 1.4507656 5.3473465e-39
0.098154619 -0.51302147 1.4507375 5.3473465e-39
0.098152727 -0.50777674 1.4507096 5.3473465e-39
0.098150834 -0.50253224 1.4506816 5.3473465e-39
0.098148927 -0.49728793 1.4506536 5.3473465e-39
0.098147035 -0.49204379 1.4506254 5.3473465e-39
0.098145142 -0.48679993 1.4505975 5.3473465e-39
0.09814325 -0.48155621 1.4505694 5.3473465e-39
0.098141357 -0.4763127 1.4505415 5.3473465e-39
0.098139934 -0.47238022 1.4505205 5.3473465e-39
0.098138511 -0.46844783 1.4504995 5.3473465e-39
0.098136619 -0.46320483 1.4504714 5.3473465e-39
0.098134726 -0.45796204 1.4504435 5.3473465e-39
0.098132834 -0.45271945 1.4504155 5.3473465e-39
0.098130941 -0.4474771 1.4503875 5.3473465e-39
0.098129034 -0.44223487 1.4503595 5.3473465e-39
0.098127149 -0.43699294 1.4503316 5.3473465e-39
0.098125249 -0.43175113 1.4503036 5.3473465e-39
0.098123357 -0.4265095 1.4502754 5.3473465e-39
0.098121941 -0.42257848 1.4502546 5.3473465e-39
0.098120511 -0.41864753 1.4502335 5.3473465e-39
0.098118626 -0.41340649 1.4502056 5.3473465e-39
0.098116733 -0.4081656 1.4501776 5.3473465e-39
0.098114833 -0.40292495 1.4501495 5.3473465e-39
0.098112941 -0.39768445 1.4501215 5.3473465e-39
0.098111048 -0.39244422 1.4500936 5.3473465e-39
0.098109156 -0.38720411 1.4500656 5.3473465e-39
0.098107263 -0.38196427 1.4500376 5.3473465e-39
0.098105371 -0.37672463 1.4500096 5.3473465e-39
0.096145846 -0.06321919 1.4599805 5.3473465e-39
0.096143976 -0.057949804 1.4599521 5.3473465e-39
0.096142113 -0.052680615 1.4599237 5.3473465e-39
0.096140243 -0.047411632 1.4598954 5.3473465e-39
0.096138373 -0.042142853 1.459867 5.3473465e-39
0.09613651 -0.036874283 1.4598386 5.3473465e-39
0.09613464 -0.031605914 1.4598103 5.3473465e-39
0.09613277 -0.026337752 1.4597819 5.3473465e-39
0.096131369 -0.022386758 1.4597607 5.3473465e-39
0.096129969 -0.018435892 1.4597393 5.3473465e-39
0.096128106 -0.01316824 1.4597111 5.3473465e-39
0.096126243 -0.0079007931 1.4596827 5.3473465e-39
0.096124366 -0.0026335507 1.4596543 5.3473465e-39
0.096122503 0.0026334869 1.459626 5.3473465e-39
0.096120641 0.00790032 1.4595976 5.3473465e-39
0.096118763 0.013166947 1.4595692 5.3473465e-39
0.0961169 0.01843337 1.4595408 5.3473465e-39
0.0961155 0.022383062 1.4595196 5.3473465e-39
0.096114099 0.026332624 1.4594984 5.3473465e-39
0.096112229 0.031598534 1.45947 5.3473465e-39
0.096110374 0.036864243 1.4594417 5.3473465e-39
0.096108496 0.042129748 1.4594133 5.3473465e-39
0.096106634 0.047395043 1.4593849 5.3473465e-39
0.096104763 0.052660137 1.4593565 5.3473465e-39
0.096102901 0.057925031 1.4593283 5.3473465e-39
0.096101031 0.063189715 1.4592999 5.3473465e-39
0.096099168 0.068454191 1.4592717 5.3473465e-39
0.096097775 0.072402433 1.4592505 5.3473465e-39
0.096096367 0.076350525 1.459229 5.3473465e-39
0.096094504 0.081614502 1.4592009 5.3473465e-39
0.096092626 0.086878262 1.4591724 5.3473465e-39
0.096090771 0.092141829 1.4591441 5.3473465e-39
0.096088901 0.09740518 1.4591157 5.3473465e-39
0.096087039 0.10266833 1.4590874 5.3473465e-39
0.096085176 0.10793129 1.4590591 5.3473465e-39
0.096083298 0.11319402 1.4590306 5.3473465e-39
0.096081436 0.11845656 1.4590025 5.3473465e-39
0.096080042 0.12240334 1.4589812 5.3473465e-39
0.096078634 0.12634999 1.4589598 5.3473465e-39
0.096076772 0.13161202 1.4589317 5.3473465e-39
0.096074909 0.13687384 1.4589033 5.3473465e-39
0.096073039 0.14213544 1.4588749 5.3473465e-39
0.096071184 0.14739688 1.4588466 5.3473465e-39
0.096069314 0.15265808 1.4588183 5.3473465e-39
0.096067443 0.15791908 1.4587899 5.3473465e-39
0.096065581 0.16317989 1.4587617 5.3473465e-39
0.096063718 0.16844049 1.4587333 5.3473465e-39
0.096062317 0.17238581 1.4587121 5.3473465e-39
0.096060924 0.17633101 1.4586909 5.3473465e-39
0.096059054 0.18159109 1.4586625 5.3473465e-39
0.096057191 0.18685097 1.4586341 5.3473465e-39
0.096055329 0.19211066 1.458606 5.3473465e-39
0.096053466 0.19737011 1.4585776 5.3473465e-39
0.096051596 0.20262939 1.4585493 5.3473465e-39
0.096049733 0.20788845 1.4585209 5.3473465e-39
0.096047871 0.21314733 1.4584928 5.3473465e-39
0.096046008 0.21840599 1.4584644 5.3473465e-39
0.096044138 0.22366442 1.458436 5.3473465e-39
0.096042745 0.22760814 1.4584148 5.3473465e-39
0.096041337 0.23155172 1.4583936 5.3473465e-39
0.096039474 0.23680967 1.4583652 5.3473465e-39
0.096037619 0.24206743 1.4583371 5.3473465e-39
0.096035756 0.24732494 1.4583087 5.3473465e-39
0.096033886 0.25258228 1.4582803 5.3473465e-39
0.096032023 0.25783938 1.4582521 5.3473465e-39
0.096030161 0.26309633 1.4582237 5.3473465e-39
0.096028298 0.26835304 1.4581954 5.3473465e-39
0.096026435 0.27360955 1.4581671 5.3473465e-39
0.096025042 0.27755183 1.458146 5.3473465e-39
0.096023634 0.28149396 1.4581246 5.3473465e-39
0.096021771 0.28674996 1.4580965 5.3473465e-39
0.096019909 0.29200575 1.4580681 5.3473465e-39
0.096018046 0.29726136 1.4580398 5.3473465e-39
0.096016183 0.30251676 1.4580116 5.3473465e-39
0.096014783 0.30645815 1.4579903 6.3614985e-39
0.096347556 -0.63219833 1.4630435 5.3473465e-39
0.096346162 -0.62822974 1.4630222 5.3473465e-39
0.096344277 -0.62293839 1.4629936 5.3473465e-39
0.0963424 -0.61764717 1.4629651 5.3473465e-39
0.096340537 -0.61235631 1.4629368 5.3473465e-39
0.096338652 -0.60706544 1.4629083 5.3473465e-39
0.096336767 -0.60177493 1.4628797 5.3473465e-39
0.096334904 -0.5964846 1.4628513 5.3473465e-39
0.096333496 -0.59251702 1.4628299 5.3473465e-39
0.096332088 -0.58854949 1.4628085 5.3473465e-39
0.096330218 -0.5832597 1.4627801 5.3473465e-39
0.096328333 -0.57797003 1.4627516 5.3473465e-39
0.096326463 -0.57268059 1.4627231 5.3473465e-39
0.096324593 -0.5673914 1.4626946 5.3473465e-39
0.096322715 -0.56210244 1.4626662 5.3473465e-39
0.096320838 -0.5568136 1.4626377 5.3473465e-39
0.09631896 -0.551525 1.4626093 5.3473465e-39
0.096317559 -0.54755872 1.462588 5.3473465e-39
0.096316144 -0.54359251 1.4625665 5.3473465e-39
0.096314281 -0.53830445 1.4625381 5.3473465e-39
0.096312404 -0.53301656 1.4625096 5.3473465e-39
0.096310526 -0.52772892 1.462481 5.3473465e-39
0.096308649 -0.52244145 1.4624527 5.3473465e-39
0.096306786 -0.51715422 1.4624243 5.3473465e-39
0.096304908 -0.51186717 1.4623957 5.3473465e-39
0.096303031 -0.50658035 1.4623673 5.3473465e-39
0.096301623 -0.50261533 1.462346 5.3473465e-39
0.096300215 -0.49865043 1.4623246 5.3473465e-39
0.096298344 -0.4933641 1.4622961 5.3473465e-39
0.096296467 -0.488078 1.4622676 5.3473465e-39
0.096294597 -0.48279208 1.4622393 5.3473465e-39
0.096292719 -0.4775064 1.4622108 5.3473465e-39
0.096290849 -0.4722209 1.4621823 5.3473465e-39
0.096288979 -0.46693558 1.4621539 5.3473465e-39
0.096287102 -0.46165049 1.4621253 5.3473465e-39
0.096285224 -0.45636559 1.4620969 5.3473465e-39
0.096283823 -0.45240206 1.4620756 5.3473465e-39
0.096282415 -0.44843864 1.4620543 5.3473465e-39
0.096280545 -0.44315431 1.4620259 5.3473465e-39
0.096278667 -0.43787012 1.4619974 5.3473465e-39
0.09627679 -0.43258613 1.4619689 5.3473465e-39
0.096274927 -0.42730242 1.4619405 5.3473465e-39
0.09627305 -0.42201886 1.461912 5.3473465e-39
0.096271172 -0.41673547 1.4618835 5.3473465e-39
0.09626931 -0.41145238 1.4618552 5.3473465e-39
0.096267901 -0.40749016 1.4618338 5.3473465e-39
0.096266493 -0.40352803 1.4618125 5.3473465e-39
0.096264631 -0.39824545 1.4617841 5.3473465e-39
0.096262753 -0.39296299 1.4617556 5.3473465e-39
0.096260875 -0.38768077 1.4617271 5.3473465e-39
0.096259005 -0.38239878 1.4616988 5.3473465e-39
0.096257128 -0.37711698 1.4616703 5.3473465e-39
0.096255258 -0.37183541 1.4616419 5.3473465e-39
0.09625338 -0.36655399 1.4616134 5.3473465e-39
0.096251987 -0.36259311 1.4615922 5.3473465e-39
0.096250579 -0.3586323 1.4615707 5.3473465e-39
0.096248701 -0.35335141 1.4615424 5.3473465e-39
0.096246839 -0.34807074 1.461514 5.3473465e-39
0.096244961 -0.34279028 1.4614855 5.3473465e-39
0.096243091 -0.33751005 1.4614571 5.3473465e-39
0.096241221 -0.33222997 1.4614286 5.3473465e-39
0.096239343 -0.32695013 1.4614003 5.3473465e-39
0.096237473 -0.32167047 1.4613718 5.3473465e-39
0.096235603 -0.31639105 1.4613434 5.3473465e-39
0.096234195 -0.31243157 1.4613221 5.3473465e-39
0.096232802 -0.30847228 1.4613008 5.3473465e-39
0.096230924 -0.30319333 1.4612724 5.3473465e-39
0.096229047 -0.29791462 1.4612439 5.3473465e-39
0.096227184 -0.2926361 1.4612155 5.3473465e-39
0.096225306 -0.28735778 1.4611871 5.3473465e-39
0.096223444 -0.28207967 1.4611588 5.3473465e-39
0.096221566 -0.27680176 1.4611303 5.3473465e-39
0.096219696 -0.27152407 1.4611019 5.3473465e-39
0.096218303 -0.26756597 1.4610807 5.3473465e-39
0.096216887 -0.26360792 1.4610593 5.3473465e-39
0.096215025 -0.25833076 1.461031 5.3473465e-39
0.096213147 -0.25305378 1.4610025 5.3473465e-39
0.096211269 -0.24777699 1.460974 5.3473465e-39
0.096209407 -0.24250042 1.4609456 5.3473465e-39
0.096207529 -0.23722406 1.4609172 5.3473465e-39
0.096205667 -0.23194793 1.4608889 5.3473465e-39
0.096203797 -0.22667196 1.4608605 5.3473465e-39
0.096201926 -0.22139624 1.4608321 5.3473465e-39
0.096200518 -0.21743953 1.4608107 5.3473465e-39
0.096199125 -0.21348299 1.4607894 5.3473465e-39
0.096197248 -0.20820776 1.4607611 5.3473465e-39
0.096195377 -0.20293272 1.4607326 5.3473465e-39
0.096193507 -0.19765791 1.4607042 5.3473465e-39
0.096191645 -0.19238329 1.4606758 5.3473465e-39
0.096189775 -0.18710887 1.4606475 5.3473465e-39
0.096187904 -0.18183467 1.460619 5.3473465e-39
0.096186027 -0.17656067 1.4605906 5.3473465e-39
0.096184619 -0.17260528 1.4605693 5.3473465e-39
0.096183226 -0.16865005 1.460548 5.3473465e-39
0.096181355 -0.16337655 1.4605197 5.3473465e-39
0.096179485 -0.15810327 1.4604913 5.3473465e-39
0.096177615 -0.15283018 1.4604628 5.3473465e-39
0.096175745 -0.14755732 1.4604344 5.3473465e-39
0.096173882 -0.14228465 1.4604061 5.3473465e-39
0.096172005 -0.13701218 1.4603777 5.3473465e-39
0.096170142 -0.13173993 1.4603493 5.3473465e-39
0.096168272 -0.12646787 1.4603209 5.3473465e-39
0.096166864 -0.12251395 1.4602996 5.3473465e-39
0.096165471 -0.11856018 1.4602785 5.3473465e-39
0.096163601 -0.11328863 1.46025 5.3473465e-39
0.096161723 -0.10801729 1.4602215 5.3473465e-39
0.09615986 -0.10274616 1.4601933 5.3473465e-39
0.096157998 -0.097475231 1.4601649 5.3473465e-39
0.09615612 -0.092204511 1.4601364 5.3473465e-39
0.096154258 -0.086933985 1.460108 5.3473465e-39
0.096152388 -0.081663683 1.4600798 5.3473465e-39
0.096150517 -0.076393574 1.4600514 5.3473465e-39
0.096149117 -0.072441116 1.4600301 5.3473465e-39
0.096147716 -0.068488792 1.4600089 5.3473465e-39
-0.84224945 0.30711132 1.4610977 7.3756504e-39
-0.83829457 0.30711108 1.4610965 7.3756504e-39
-0.8330214 0.30711073 1.461095 7.3756504e-39
-0.82774818 0.3071104 1.4610934 7.3756504e-39
-0.82247508 0.30711007 1.4610918 7.3756504e-39
-0.81720191 0.30710977 1.4610903 7.3756504e-39
-0.81192881 0.30710942 1.4610888 7.3756504e-39
-0.80665565 0.30710912 1.4610872 7.3756504e-39
-0.8013826 0.30710879 1.4610858 7.3756504e-39
-0.79742777 0.30710855 1.4610846 7.3756504e-39
-0.79347295 0.30710828 1.4610834 7.3756504e-39
-0.7881999 0.30710799 1.4610819 7.3756504e-39
-0.78292686 0.30710766 1.4610803 7.3756504e-39
-0.77765375 0.30710733 1.4610789 7.3756504e-39
-0.77238071 0.30710697 1.4610772 7.3756504e-39
-0.76710761 0.30710667 1.4610757 7.3756504e-39
-0.76183462 0.30710638 1.4610741 7.3756504e-39
-0.75656164 0.30710605 1.4610727 7.3756504e-39
-0.75260693 0.30710581 1.4610715 7.3756504e-39
-0.74865216 0.30710554 1.4610703 7.3756504e-39
-0.74337924 0.30710524 1.4610689 7.3756504e-39
-0.73810625 0.30710492 1.4610672 7.3756504e-39
-0.73283327 0.30710459 1.4610658 7.3756504e-39
-0.72756034 0.30710429 1.4610642 7.3756504e-39
-0.72228742 0.30710393 1.4610627 7.3756504e-39
-0.71701437 0.30710357 1.461061 7.3756504e-39
-0.71174151 0.30710328 1.4610596 7.3756504e-39
-0.70646858 0.30710295 1.4610579 7.3756504e-39
-0.70251393 0.30710271 1.4610568 7.3756504e-39
-0.69855928 0.30710247 1.4610558 7.3756504e-39
-0.69328642 0.30710214 1.4610541 7.3756504e-39
-0.68801355 0.30710185 1.4610527 7.3756504e-39
-0.68274069 0.30710149 1.4610511 7.3756504e-39
-0.67746782 0.30710119 1.4610496 7.3756504e-39
-0.67219508 0.30710086 1.4610481 7.3756504e-39
-0.66692221 0.30710053 1.4610465 7.3756504e-39
-0.66164935 0.30710021 1.4610449 7.3756504e-39
-0.6563766 0.30709988 1.4610434 7.3756504e-39
-0.65242195 0.30709964 1.4610422 7.3756504e-39
-0.64846742 0.3070994 1.461041 7.3756504e-39
-0.64319468 0.3070991 1.4610395 7.3756504e-39
-0.63792193 0.30709875 1.461038 7.3756504e-39
-0.63264912 0.30709845 1.4610364 7.3756504e-39
-0.62737644 0.30709812 1.461035 7.3756504e-39
-0.62210369 0.30709779 1.4610333 7.3756504e-39
-0.616831 0.30709749 1.4610319 7.3756504e-39
-0.61155826 0.30709714 1.4610304 7.3756504e-39
-0.60760373 0.3070969 1.4610292 7.3756504e-39
-0.6036492 0.30709666 1.461028 7.3756504e-39
-0.59837651 0.3070963 1.4610264 7.3756504e-39
-0.59310389 0.307096 1.4610249 7.3756504e-39
-0.58783126 0.30709568 1.4610233 7.3756504e-39
-0.58255857 0.30709535 1.4610219 7.3756504e-39
-0.57728595 0.30709505 1.4610202 7.3756504e-39
-0.57201338 0.30709469 1.4610188 7.3756504e-39
-0.56674075 0.3070944 1.4610173 7.3756504e-39
-0.56146812 0.3070941 1.4610157 7.3756504e-39
-0.55751371 0.30709386 1.4610146 7.3756504e-39
-0.5535593 0.30709362 1.4610134 7.3756504e-39
-0.54828668 0.30709326 1.4610118 7.3756504e-39
-0.54301411 0.30709293 1.4610102 7.3756504e-39
-0.53774154 0.30709261 1.4610088 7.3756504e-39
-0.53246903 0.30709231 1.4610072 7.3756504e-39
-0.52719653 0.30709195 1.4610057 7.3756504e-39
-0.52192402 0.30709165 1.4610041 7.3756504e-39
-0.51665151 0.30709133 1.4610026 7.3756504e-39
-0.511379 0.307091 1.4610012 7.3756504e-39
-0.50742465 0.30709076 1.461 7.3756504e-39
-0.5034703 0.30709052 1.4609988 7.3756504e-39
-0.49819782 0.30709019 1.4609973 7.3756504e-39
-0.49292535 0.30708987 1.4609957 7.3756504e-39
-0.4876529 0.30708951 1.4609941 7.3756504e-39
-0.48238048 0.30708921 1.4609926 7.3756504e-39
-0.47710806 0.30708891 1.460991 7.3756504e-39
-0.47183567 0.30708855 1.4609895 7.3756504e-39
-0.46656325 0.30708826 1.460988 7.3756504e-39
-0.46260896 0.30708802 1.4609869 7.3756504e-39
-0.4586547 0.30708778 1.4609857 7.3756504e-39
-0.45338231 0.30708745 1.4609842 7.3756504e-39
-0.44810998 0.30708712 1.4609827 7.3756504e-39
-0.44283763 0.30708683 1.4609811 7.3756504e-39
-0.43756527 0.30708647 1.4609795 7.3756504e-39
-0.43229291 0.30708611 1.4609779 7.3756504e-39
-0.42702061 0.30708581 1.4609764 7.3756504e-39
-0.42174831 0.30708548 1.4609749 7.3756504e-39
-0.41647604 0.30708516 1.4609734 7.3756504e-39
-0.41252181 0.30708492 1.4609722 7.3756504e-39
-0.40856761 0.30708468 1.4609711 7.3756504e-39
-0.40329534 0.30708438 1.4609696 7.3756504e-39
-0.3980231 0.30708402 1.460968 7.3756504e-39
-0.39275086 0.30708373 1.4609665 7.3756504e-39
-0.38747865 0.3070834 1.4609649 7.3756504e-39
-0.38220638 0.30708307 1.4609634 7.3756504e-39
-0.37693417 0.30708277 1.4609618 7.3756504e-39
-0.37166199 0.30708241 1.4609603 7.3756504e-39
-0.36638978 0.30708212 1.4609587 7.3756504e-39
-0.36243567 0.30708188 1.4609576 7.3756504e-39
-0.35848156 0.30708164 1.4609565 7.3756504e-39
-0.35320938 0.30708128 1.4609549 7.3756504e-39
-0.34793723 0.30708098 1.4609535 7.3756504e-39
-0.34266511 0.30708066 1.4609518 7.3756504e-39
-0.33739299 0.30708033 1.4609504 7.3756504e-39
-0.3321209 0.30708003 1.4609488 7.3756504e-39
-0.32684875 0.30707967 1.4609473 7.3756504e-39
-0.32157665 0.30707932 1.4609456 7.3756504e-39
-0.3176226 0.30707911 1.4609445 7.3756504e-39
-0.31366855 0.30707884 1.4609433 7.3756504e-39
-0.30839646 0.30707854 1.4609418 7.3756504e-39
-0.30312443 0.30707821 1.4609404 7.3756504e-39
-0.2978524 0.30707788 1.4609387 7.3756504e-39
-0.29258037 0.30707759 1.4609373 7.3756504e-39
-0.28730834 0.30707723 1.4609357 7.3756504e-39
-0.2820363 0.30707693 1.4609342 7.3756504e-39
-0.27676433 0.30707663 1.4609327 7.3756504e-39
-0.27149236 0.30707631 1.4609311 7.3756504e-39
-0.26753834 0.30707604 1.4609299 7.3756504e-39
-0.26358438 0.3070758 1.4609287 7.3756504e-39
-0.2583124 0.30707547 1.4609272 7.3756504e-39
-0.25304043 0.30707514 1.4609256 7.3756504e-39
-0.24776854 0.30707484 1.4609241 7.3756504e-39
-0.24249661 0.30707449 1.4609226 7.3756504e-39
-0.23722468 0.30707419 1.460921 7.3756504e-39
-0.23195279 0.30707386 1.4609196 7.3756504e-39
-0.22668089 0.30707353 1.4609179 7.3756504e-39
-0.22140902 0.30707324 1.4609165 7.3756504e-39
-0.2174551 0.30707297 1.4609153 7.3756504e-39
-0.2135012 0.3070727 1.4609141 7.3756504e-39
-0.20822935 0.3070724 1.4609126 7.3756504e-39
-0.20295751 0.30707204 1.460911 7.3756504e-39
-0.19768567 0.30707175 1.4609095 7.3756504e-39
-0.19241387 0.30707145 1.4609079 7.3756504e-39
-0.18714204 0.30707109 1.4609065 7.3756504e-39
-0.18187025 0.30707079 1.460905 7.3756504e-39
-0.17659846 0.30707049 1.4609034 7.3756504e-39
-0.1713267 0.30707014 1.4609019 7.3756504e-39
-0.16737285 0.3070699 1.4609007 7.3756504e-39
-0.16341905 0.30706966 1.4608996 7.3756504e-39
-0.15814731 0.30706936 1.460898 7.3756504e-39
-0.15287554 0.307069 1.4608964 7.3756504e-39
-0.14760382 0.30706868 1.4608948 7.3756504e-39
-0.14233211 0.30706835 1.4608934 7.3756504e-39
-0.1370604 0.30706805 1.4608918 7.3756504e-39
-0.13178872 0.30706769 1.4608903 7.3756504e-39
-0.12651703 0.30706739 1.4608887 7.3756504e-39
-0.12256329 0.30706716 1.4608877 7.3756504e-39
-0.11860953 0.30706692 1.4608865 7.3756504e-39
-0.11333788 0.30706656 1.4608849 7.3756504e-39
-0.10806625 0.30706626 1.4608834 7.3756504e-39
-0.10279461 0.30706593 1.4608819 7.3756504e-39
-0.097522981 0.30706561 1.4608803 7.3756504e-39
-0.092251375 0.30706531 1.4608787 7.3756504e-39
-0.086979777 0.30706495 1.4608772 7.3756504e-39
-0.081708193 0.30706465 1.4608757 7.3756504e-39
-0.076436609 0.30706432 1.4608741 7.3756504e-39
-0.072482936 0.30706409 1.460873 7.3756504e-39
-0.068529263 0.30706382 1.4608718 7.3756504e-39
-0.063257717 0.30706352 1.4608703 7.3756504e-39
-0.057986181 0.30706319 1.4608688 7.3756504e-39
-0.052714657 0.30706286 1.4608673 7.3756504e-39
-0.04744314 0.30706257 1.4608657 7.3756504e-39
-0.042171635 0.30706221 1.4608641 7.3756504e-39
-0.03690014 0.30706188 1.4608626 7.3756504e-39
-0.031628657 0.30706155 1.460861 7.3756504e-39
-0.026357189 0.30706125 1.4608595 7.3756504e-39
-0.022403592 0.30706099 1.4608583 7.3756504e-39
-0.018450003 0.30706075 1.4608572 7.3756504e-39
-0.013178561 0.30706042 1.4608557 7.3756504e-39
-0.007907128 0.30706012 1.4608542 7.3756504e-39
-0.0026357067 0.30705976 1.4608526 7.3756504e-39
0.0026357032 0.30705947 1.4608512 7.3756504e-39
0.0079071019 0.30705917 1.4608495 7.3756504e-39
0.01317849 0.30705884 1.4608481 7.3756504e-39
0.018449865 0.30705851 1.4608464 7.3756504e-39
0.022403391 0.30705824 1.4608452 7.3756504e-39
0.026356909 0.30705801 1.460844 7.3756504e-39
0.031628259 0.30705768 1.4608426 7.3756504e-39
0.036899596 0.30705738 1.4608411 7.3756504e-39
0.042170923 0.30705702 1.4608395 7.3756504e-39
0.047442243 0.30705673 1.4608381 7.3756504e-39
0.052713543 0.3070564 1.4608364 7.3756504e-39
0.057984836 0.30705607 1.460835 7.3756504e-39
0.063256122 0.30705577 1.4608334 7.3756504e-39
0.068527386 0.30705541 1.4608319 7.3756504e-39
0.072480835 0.30705518 1.4608307 7.3756504e-39
0.076434277 0.30705494 1.4608295 7.3756504e-39
0.081705511 0.30705458 1.4608279 7.3756504e-39
0.086976752 0.30705428 1.4608264 7.3756504e-39
0.092247978 0.30705398 1.460825 7.3756504e-39
0.094152749 0.27317557 1.4699888 5.3473465e-39
0.094150908 0.27847451 1.46996 5.3473465e-39
0.094149522 0.28244856 1.4699384 5.3473465e-39
0.094148144 0.28642252 1.4699168 5.3473465e-39
0.094146296 0.29172093 1.4698881 5.3473465e-39
0.094144456 0.29701912 1.4698594 5.3473465e-39
0.094142616 0.30231711 1.4698305 5.3473465e-39
0.09414123 0.30629048 1.4698089 5.9005203e-39
0.094469234 -0.6373347 1.47493 5.3473465e-39
0.094467849 -0.6333338 1.4749084 5.3473465e-39
0.094466001 -0.62799931 1.4748795 5.3473465e-39
0.094464138 -0.62266505 1.4748504 5.3473465e-39
0.09446229 -0.61733103 1.4748216 5.3473465e-39
0.094460428 -0.61199713 1.4747926 5.3473465e-39
0.09445858 -0.60666358 1.4747636 5.3473465e-39
0.094457187 -0.60266346 1.4747419 5.3473465e-39
0.094455793 -0.59866345 1.4747202 5.3473465e-39
0.094453946 -0.59333044 1.4746914 5.3473465e-39
0.094452083 -0.58799756 1.4746623 5.3473465e-39
0.094450235 -0.58266485 1.4746335 5.3473465e-39
0.094448388 -0.57733238 1.4746045 5.3473465e-39
0.094446525 -0.57200009 1.4745755 5.3473465e-39
0.094444677 -0.56666803 1.4745467 5.3473465e-39
0.094442822 -0.56133622 1.4745176 5.3473465e-39
0.094441429 -0.55733746 1.4744959 5.3473465e-39
0.094440043 -0.55333889 1.4744743 5.3473465e-39
0.094438195 -0.54800749 1.4744453 5.3473465e-39
0.094436333 -0.54267639 1.4744164 5.3473465e-39
0.094434485 -0.53734553 1.4743874 5.3473465e-39
0.09443263 -0.53201479 1.4743586 5.3473465e-39
0.094430774 -0.52668428 1.4743296 5.3473465e-39
0.094428927 -0.52135408 1.4743006 5.3473465e-39
0.094427541 -0.51735651 1.474279 5.3473465e-39
0.094426148 -0.51335907 1.4742572 5.3473465e-39
0.094424292 -0.50802934 1.4742284 5.3473465e-39
0.094422445 -0.50269973 1.4741994 5.3473465e-39
0.094420582 -0.49737042 1.4741704 5.3473465e-39
0.094418734 -0.49204129 1.4741416 5.3473465e-39
0.094416887 -0.4867124 1.4741126 5.3473465e-39
0.094415039 -0.48138368 1.4740838 5.3473465e-39
0.094413646 -0.47738728 1.4740621 5.3473465e-39
0.094412252 -0.47339103 1.4740404 5.3473465e-39
0.094410397 -0.46806282 1.4740114 5.3473465e-39
0.094408549 -0.46273488 1.4739826 5.3473465e-39
0.094406694 -0.45740709 1.4739536 5.3473465e-39
0.094404832 -0.45207953 1.4739246 5.3473465e-39
0.094402984 -0.44675219 1.4738958 5.3473465e-39
0.094401136 -0.44142509 1.4738669 5.3473465e-39
0.094399743 -0.43742982 1.4738451 5.3473465e-39
0.094398364 -0.43343475 1.4738235 5.3473465e-39
0.094396509 -0.42810813 1.4737947 5.3473465e-39
0.094394654 -0.42278171 1.4737656 5.3473465e-39
0.094392806 -0.41745552 1.4737368 5.3473465e-39
0.094390959 -0.41212952 1.4737079 5.3473465e-39
0.094389103 -0.40680376 1.4736791 5.3473465e-39
0.094387248 -0.40147817 1.4736501 5.3473465e-39
0.09438587 -0.39748415 1.4736285 5.3473465e-39
0.094384477 -0.39349023 1.4736067 5.3473465e-39
0.094382629 -0.38816518 1.4735779 5.3473465e-39
0.094380774 -0.38284034 1.4735489 5.3473465e-39
0.094378926 -0.37751573 1.47352 5.3473465e-39
0.094377071 -0.37219125 1.4734912 5.3473465e-39
0.094375223 -0.36686707 1.4734623 5.3473465e-39
0.094373375 -0.36154306 1.4734334 5.3473465e-39
0.094371982 -0.3575502 1.4734117 5.3473465e-39
0.094370596 -0.35355747 1.4733901 5.3473465e-39
0.094368741 -0.34823397 1.4733611 5.3473465e-39
0.094366893 -0.34291071 1.4733322 5.3473465e-39
0.094365045 -0.33758765 1.4733033 5.3473465e-39
0.094363198 -0.33226478 1.4732745 5.3473465e-39
0.094361342 -0.32694215 1.4732456 5.3473465e-39
0.094359495 -0.32161969 1.4732168 5.3473465e-39
0.094358101 -0.31762797 1.473195 5.3473465e-39
0.094356716 -0.31363642 1.4731734 5.3473465e-39
0.094354868 -0.3083145 1.4731445 5.3473465e-39
0.09435302 -0.30299282 1.4731157 5.3473465e-39
0.094351172 -0.29767132 1.4730867 5.3473465e-39
0.094349325 -0.29234999 1.4730579 5.3473465e-39
0.09434747 -0.28702891 1.4730289 5.3473465e-39
0.094345614 -0.28170806 1.473 5.3473465e-39
0.094343767 -0.27638739 1.4729712 5.3473465e-39
0.094342381 -0.27239701 1.4729495 5.3473465e-39
0.094340995 -0.26840681 1.4729279 5.3473465e-39
0.094339147 -0.26308665 1.4728991 5.3473465e-39
0.094337299 -0.25776672 1.4728701 5.3473465e-39
0.094335452 -0.25244701 1.4728413 5.3473465e-39
0.094333604 -0.24712747 1.4728124 5.3473465e-39
0.094331756 -0.24180816 1.4727836 5.3473465e-39
0.094329901 -0.23648906 1.4727547 5.3473465e-39
0.094328515 -0.23249987 1.472733 5.3473465e-39
0.094327129 -0.2285108 1.4727113 5.3473465e-39
0.094325282 -0.22319221 1.4726825 5.3473465e-39
0.094323434 -0.21787386 1.4726536 5.3473465e-39
0.094321579 -0.21255568 1.4726248 5.3473465e-39
0.094319731 -0.20723774 1.4725959 5.3473465e-39
0.094317883 -0.20191999 1.4725671 5.3473465e-39
0.094316036 -0.19660246 1.4725382 5.3473465e-39
0.09431465 -0.19261442 1.4725165 5.3473465e-39
0.094313264 -0.18862654 1.472495 5.3473465e-39
0.094311416 -0.18330953 1.4724661 5.3473465e-39
0.094309568 -0.1779927 1.4724371 5.3473465e-39
0.094307721 -0.17267612 1.4724083 5.3473465e-39
0.094305873 -0.16735972 1.4723794 5.3473465e-39
