# .PCD v0.7 - Point Cloud Data file format
VERSION 0.7
FIELDS x y z rgb
SIZE 4 4 4 4
TYPE F F F F
COUNT 1 1 1 1
WIDTH 1027
HEIGHT 1
VIEWPOINT 0 0 0 1 0 0 0
POINTS 1027
DATA ascii
0.39263764 -0.11681769 1.1990138 2.8580645e-39
0.39720491 -0.11688864 1.1997421 2.8580645e-39
0.36987045 -0.11214732 1.1953495 2.8580645e-39
0.37327507 -0.11219825 1.1958923 2.8580645e-39
0.37781912 -0.11226621 1.1966168 2.8580645e-39
0.38236868 -0.11233427 1.1973422 2.8580645e-39
0.38692379 -0.1124024 1.1980684 2.8580645e-39
0.39262569 -0.11248768 1.1989775 2.8580645e-39
0.39719278 -0.112556 1.1997055 2.8580645e-39
0.36985922 -0.10783069 1.1953132 2.8580645e-39
0.37326372 -0.10787965 1.1958559 2.8580645e-39
0.37780762 -0.107945 1.1965804 2.8580645e-39
0.38235706 -0.10801043 1.1973056 2.8580645e-39
0.38691199 -0.10807594 1.1980319 2.8580645e-39
0.39261374 -0.10815796 1.1989409 2.8580645e-39
0.39718068 -0.10822362 1.1996689 2.8580645e-39
0.36984515 -0.10243527 1.1952677 2.8580645e-39
0.37324953 -0.10248178 1.1958106 2.8580645e-39
0.37779328 -0.10254387 1.196535 2.8580645e-39
0.38234249 -0.10260602 1.1972601 2.8580645e-39
0.3868973 -0.10266825 1.1979861 2.8580645e-39
0.39259878 -0.10274615 1.1988951 2.8580645e-39
0.39807859 -0.10238769 1.1997653 2.8580645e-39
0.36983114 -0.097040251 1.1952224 2.8580645e-39
0.37323534 -0.097084306 1.195765 2.8580645e-39
0.37777889 -0.097143114 1.1964893 2.8580645e-39
0.38232797 -0.097201996 1.1972146 2.8580645e-39
0.38688254 -0.097260937 1.1979407 2.8580645e-39
0.39258382 -0.09733472 1.1988496 2.8580645e-39
0.3982932 -0.097408623 1.1997596 2.8580645e-39
0.36981988 -0.092724532 1.1951861 2.8580645e-39
0.37322402 -0.092766628 1.1957287 2.8580645e-39
0.37776741 -0.09282282 1.196453 2.8580645e-39
0.38231632 -0.092879079 1.1971781 2.8580645e-39
0.38687074 -0.092935406 1.1979041 2.8580645e-39
0.39257184 -0.093005903 1.198813 2.8580645e-39
0.39828104 -0.093076512 1.1997231 2.8580645e-39
0.36980581 -0.087330259 1.1951406 2.8580645e-39
0.37320983 -0.087369919 1.1956834 2.8580645e-39
0.37775302 -0.087422825 1.1964074 2.8580645e-39
0.38230181 -0.087475814 1.1971326 2.8580645e-39
0.38685599 -0.087528862 1.1978585 2.8580645e-39
0.39255694 -0.087595269 1.1987672 2.8580645e-39
0.39826587 -0.087661766 1.1996773 2.8580645e-39
0.36979181 -0.081936382 1.1950953 2.8580645e-39
0.37319565 -0.081973575 1.1956378 2.8580645e-39
0.37773868 -0.082023226 1.196362 2.8580645e-39
0.38228723 -0.082072936 1.197087 2.8580645e-39
0.3868413 -0.082122706 1.1978129 2.8580645e-39
0.39254197 -0.082185008 1.1987215 2.8580645e-39
0.3982507 -0.082247399 1.1996317 2.8580645e-39
0.36978054 -0.077621579 1.1950589 2.8580645e-39
0.37318426 -0.07765682 1.1956015 2.8580645e-39
0.37772724 -0.077703856 1.1963257 2.8580645e-39
0.38227561 -0.077750944 1.1970506 2.8580645e-39
0.38682953 -0.077798098 1.1977764 2.8580645e-39
0.39252996 -0.077857107 1.1986851 2.8580645e-39
0.39823851 -0.077916205 1.199595 2.8580645e-39
0.3697693 -0.073307037 1.1950226 2.8580645e-39
0.37317014 -0.072261252 1.195556 2.8580645e-39
0.37771285 -0.072305016 1.19628 2.8580645e-39
0.38226107 -0.072348833 1.1970052 2.8580645e-39
0.38681483 -0.07239271 1.1977309 2.8580645e-39
0.39251503 -0.072447628 1.1986395 2.8580645e-39
0.39822337 -0.072502606 1.1995493 2.8580645e-39
0.37315595 -0.06686607 1.1955106 2.8580645e-39
0.37769848 -0.066906564 1.1962347 2.8580645e-39
0.38224649 -0.06694711 1.1969595 2.8580645e-39
0.38680008 -0.066987701 1.1976852 2.8580645e-39
0.39250004 -0.067038514 1.1985937 2.8580645e-39
0.39820814 -0.067089394 1.1995035 2.8580645e-39
0.37314457 -0.062550232 1.1954743 2.8580645e-39
0.37768698 -0.062588111 1.1961982 2.8580645e-39
0.38223487 -0.062626034 1.196923 2.8580645e-39
0.38678828 -0.06266401 1.1976488 2.8580645e-39
0.39248812 -0.062711537 1.1985573 2.8580645e-39
0.39819601 -0.062759139 1.1994669 2.8580645e-39
0.37335855 -0.057589013 1.1954688 2.8580645e-39
0.37767264 -0.057190422 1.1961528 2.8580645e-39
0.38222036 -0.057225078 1.1968776 2.8580645e-39
0.38677359 -0.057259772 1.1976032 2.8580645e-39
0.39247316 -0.057303205 1.1985116 2.8580645e-39
0.39818084 -0.05734669 1.1994212 2.8580645e-39
0.40160957 -0.05737282 1.1999676 2.8580645e-39
0.37289101 -0.052407384 1.1953528 2.8580645e-39
0.37765828 -0.051793121 1.1961074 2.8580645e-39
0.38220581 -0.051824503 1.1968321 2.8580645e-39
0.38675886 -0.051855922 1.1975577 2.8580645e-39
0.39245823 -0.05189525 1.1984659 2.8580645e-39
0.39816567 -0.051934637 1.1993755 2.8580645e-39
0.40159431 -0.0519583 1.199922 2.8580645e-39
0.3731049 -0.047446854 1.1953471 2.8580645e-39
0.3776468 -0.047475584 1.1960709 2.8580645e-39
0.38219419 -0.047504351 1.1967957 2.8580645e-39
0.38674709 -0.047533147 1.1975212 2.8580645e-39
0.39244628 -0.0475692 1.1984295 2.8580645e-39
0.39815351 -0.047605302 1.1993389 2.8580645e-39
0.40158203 -0.047626987 1.1998854 2.8580645e-39
0.37309355 -0.043132193 1.1953108 2.8580645e-39
0.3776353 -0.043158308 1.1960346 2.8580645e-39
0.38218254 -0.043184459 1.1967592 2.8580645e-39
0.38673532 -0.043210637 1.1974847 2.8580645e-39
0.39275894 -0.042781688 1.1984408 2.8580645e-39
0.39813837 -0.042194013 1.1992931 2.8580645e-39
0.40156671 -0.042213235 1.1998395 2.8580645e-39
0.37307939 -0.037739251 1.1952653 2.8580645e-39
0.37762097 -0.037762102 1.195989 2.8580645e-39
0.38216802 -0.037784979 1.1967137 2.8580645e-39
0.38672057 -0.037807886 1.1974392 2.8580645e-39
0.39213344 -0.037564702 1.1982995 2.8580645e-39
0.39812317 -0.036783114 1.1992475 2.8580645e-39
0.40155143 -0.03679987 1.1997938 2.8580645e-39
0.37306523 -0.032346692 1.19522 2.8580645e-39
0.3776066 -0.032366276 1.1959436 2.8580645e-39
0.38215351 -0.032385886 1.1966681 2.8580645e-39
0.38670588 -0.032405514 1.1973937 2.8580645e-39
0.39240444 -0.03243009 1.1983017 2.8580645e-39
0.39811105 -0.032454699 1.1992109 2.8580645e-39
0.40153915 -0.032469481 1.1997572 2.8580645e-39
0.37343302 -0.028393773 1.1952471 2.8580645e-39
0.37759513 -0.02804992 1.1959074 2.8580645e-39
0.38214186 -0.028066913 1.1966318 2.8580645e-39
0.3866941 -0.028083924 1.1973572 2.8580645e-39
0.39239249 -0.028105222 1.1982651 2.8580645e-39
0.39809892 -0.028126549 1.1991744 2.8580645e-39
0.40152693 -0.02813936 1.1997206 2.8580645e-39
0.37417427 -0.022644574 1.1953191 2.8580645e-39
0.37758076 -0.022654856 1.1958619 2.8580645e-39
0.38212731 -0.022668583 1.1965863 2.8580645e-39
0.38667941 -0.022682324 1.1973115 2.8580645e-39
0.39237753 -0.022699524 1.1982194 2.8580645e-39
0.39808372 -0.022716746 1.1991287 2.8580645e-39
0.40151158 -0.022727095 1.199675 2.8580645e-39
0.37416011 -0.017252347 1.1952736 2.8580645e-39
0.3775664 -0.017260179 1.1958163 2.8580645e-39
0.3821128 -0.017270636 1.1965408 2.8580645e-39
0.38666469 -0.017281104 1.197266 2.8580645e-39
0.39236256 -0.017294206 1.1981739 2.8580645e-39
0.39806855 -0.01730733 1.199083 2.8580645e-39
0.40225759 -0.016956078 1.1997476 2.8580645e-39
0.37414873 -0.012938868 1.1952374 2.8580645e-39
0.37755495 -0.012944744 1.19578 2.8580645e-39
0.38210118 -0.012952585 1.1965044 2.8580645e-39
0.38665292 -0.012960436 1.1972296 2.8580645e-39
0.39235067 -0.012970262 1.1981374 2.8580645e-39
0.39805642 -0.012980103 1.1990464 2.8580645e-39
0.40262753 -0.012987988 1.1997747 2.8580645e-39
0.37413445 -0.0075474032 1.1951919 2.8580645e-39
0.37754059 -0.0075508305 1.1957346 2.8580645e-39
0.38208663 -0.0075554042 1.1964589 2.8580645e-39
0.38663819 -0.0075599831 1.197184 2.8580645e-39
0.39233571 -0.0075657154 1.1980916 2.8580645e-39
0.39804125 -0.0075714565 1.1990008 2.8580645e-39
0.40261218 -0.0075760544 1.1997291 2.8580645e-39
0.3741203 -0.0021563212 1.1951466 2.8580645e-39
0.37752622 -0.0021573 1.1956891 2.8580645e-39
0.38207212 -0.0021586067 1.1964134 2.8580645e-39
0.3866235 -0.0021599152 1.1971385 2.8580645e-39
0.39232075 -0.0021615524 1.1980461 2.8580645e-39
0.39802611 -0.0021631925 1.1989552 2.8580645e-39
0.40259683 -0.0021645064 1.1996832 2.8580645e-39
0.37410891 0.002156239 1.1951102 2.8580645e-39
0.37751478 0.0021572183 1.1956528 2.8580645e-39
0.38206047 0.0021585247 1.1963769 2.8580645e-39
0.38661173 0.002159833 1.1971021 2.8580645e-39
0.3923088 0.0021614705 1.1980096 2.8580645e-39
0.39801395 0.0021631103 1.1989186 2.8580645e-39
0.40258452 0.0021644239 1.1996467 2.8580645e-39
0.37409472 0.0075465571 1.1950648 2.8580645e-39
0.37750041 0.007549983 1.1956074 2.8580645e-39
0.38204598 0.0075545558 1.1963315 2.8580645e-39
0.38659701 0.0075591337 1.1970564 2.8580645e-39
0.39229387 0.0075648651 1.1979641 2.8580645e-39
0.39799881 0.0075706039 1.1988729 2.8580645e-39
0.4025692 0.0075752013 1.1996011 2.8580645e-39
0.37408051 0.012936493 1.1950195 2.8580645e-39
0.37748608 0.012942366 1.1955619 2.8580645e-39
0.38203147 0.012950204 1.1962861 2.8580645e-39
0.38726503 0.013175277 1.197118 2.8580645e-39
0.39273554 0.012752617 1.1979929 2.8580645e-39
0.39798364 0.012977714 1.1988271 2.8580645e-39
0.40255386 0.012985595 1.1995553 2.8580645e-39
0.37747461 0.017255966 1.1955256 2.8580645e-39
0.38201982 0.017266419 1.1962497 2.8580645e-39
0.38770935 0.0172795 1.197156 2.8580645e-39
0.39340696 0.017292598 1.1980636 2.8580645e-39
0.39797151 0.017303094 1.1987906 2.8580645e-39
0.40254158 0.017313601 1.1995187 2.8580645e-39
0.37746027 0.022647584 1.1954802 2.8580645e-39
0.3820053 0.0226613 1.1962042 2.8580645e-39
0.38769463 0.022678468 1.1971105 2.8580645e-39
0.393392 0.022695661 1.198018 2.8580645e-39
0.39795634 0.022709431 1.1987449 2.8580645e-39
0.40252623 0.022723222 1.1994729 2.8580645e-39
0.37744594 0.028038822 1.1954348 2.8580645e-39
0.38199079 0.028055798 1.1961586 2.8580645e-39
0.3876799 0.028077053 1.1970649 2.8580645e-39
0.39337701 0.028098337 1.1979723 2.8580645e-39
0.3979412 0.028115392 1.1986994 2.8580645e-39
0.40251088 0.028132463 1.1994271 2.8580645e-39
0.40594167 0.02814528 1.1999736 2.8580645e-39
0.37743446 0.032351501 1.1953984 2.8580645e-39
0.38197917 0.032371093 1.1961224 2.8580645e-39
0.3876681 0.032395616 1.1970285 2.8580645e-39
0.39336503 0.032420173 1.1979358 2.8580645e-39
0.39792904 0.032439847 1.1986628 2.8580645e-39
0.40249863 0.032459546 1.1993906 2.8580645e-39
0.40592924 0.032474332 1.199937 2.8580645e-39
0.37742016 0.037741978 1.195353 2.8580645e-39
0.38196465 0.037764825 1.1960769 2.8580645e-39
0.38765335 0.037793439 1.1969829 2.8580645e-39
0.39335003 0.037822083 1.1978902 2.8580645e-39
0.39791691 0.036764041 1.1986263 2.8580645e-39
0.40248632 0.036786363 1.1993539 2.8580645e-39
0.40591687 0.036803119 1.1999004 2.8580645e-39
0.37740579 0.043132059 1.1953077 2.8580645e-39
0.38195011 0.043158181 1.1960313 2.8580645e-39
0.38763857 0.04319087 1.1969374 2.8580645e-39
0.39333507 0.043223612 1.1978446 2.8580645e-39
0.39790177 0.042168897 1.1985805 2.8580645e-39
0.40247098 0.042194504 1.1993084 2.8580645e-39
0.40590134 0.042213723 1.1998547 2.8580645e-39
0.37739432 0.047443826 1.1952713 2.8580645e-39
0.38193852 0.047472555 1.1959951 2.8580645e-39
0.38762677 0.047508512 1.196901 2.8580645e-39
0.39332312 0.047544524 1.1978083 2.8580645e-39
0.3978866 0.047573369 1.198535 2.8580645e-39
0.40245563 0.047602251 1.1992626 2.8580645e-39
0.40588593 0.04762394 1.199809 2.8580645e-39
0.37737998 0.052833151 1.195226 2.8580645e-39
0.38192689 0.051786665 1.1959587 2.8580645e-39
0.38761497 0.051825896 1.1968646 2.8580645e-39
0.39331114 0.051865172 1.1977715 2.8580645e-39
0.39787447 0.051896643 1.1984985 2.8580645e-39
0.40244338 0.051928148 1.199226 2.8580645e-39
0.40587354 0.051951803 1.1997724 2.8580645e-39
0.37774503 0.057865839 1.1952438 2.8580645e-39
0.38191238 0.057178926 1.1959131 2.8580645e-39
0.38760027 0.057222232 1.1968191 2.8580645e-39
0.39329615 0.057265606 1.1977261 2.8580645e-39
0.39785933 0.057300344 1.1984528 2.8580645e-39
0.40242803 0.057335135 1.1991805 2.8580645e-39
0.40585804 0.057361249 1.1997266 2.8580645e-39
0.3784894 0.062542401 1.1953249 2.8580645e-39
0.3818979 0.062570803 1.1958678 2.8580645e-39
0.38758552 0.062618196 1.1967735 2.8580645e-39
0.39328119 0.062665649 1.1976806 2.8580645e-39
0.3978442 0.062703669 1.1984072 2.8580645e-39
0.40241268 0.062741727 1.1991346 2.8580645e-39
0.4058426 0.062770307 1.1996808 2.8580645e-39
0.3784779 0.066853642 1.1952887 2.8580645e-39
0.38188624 0.066883996 1.1958313 2.8580645e-39
0.38757372 0.066934653 1.1967372 2.8580645e-39
0.39326921 0.066985384 1.197644 2.8580645e-39
0.39783207 0.067026019 1.1983707 2.8580645e-39
0.40240046 0.067066707 1.1990981 2.8580645e-39
0.40659198 0.067464717 1.1997627 2.8580645e-39
0.37846351 0.072242297 1.1952432 2.8580645e-39
0.38187173 0.072275102 1.195786 2.8580645e-39
0.387559 0.072329849 1.1966915 2.8580645e-39
0.39325425 0.072384655 1.1975985 2.8580645e-39
0.3978169 0.072428577 1.198325 2.8580645e-39
0.40238512 0.072472543 1.1990525 2.8580645e-39
0.40695885 0.072516553 1.1997806 2.8580645e-39
0.37844914 0.077630587 1.1951978 2.8580645e-39
0.38185725 0.077665836 1.1957405 2.8580645e-39
0.38754424 0.077724658 1.1966462 2.8580645e-39
0.39323929 0.077783555 1.1975529 2.8580645e-39
0.39780176 0.077830739 1.1982794 2.8580645e-39
0.40236977 0.077877983 1.1990067 2.8580645e-39
0.40694338 0.07792528 1.1997349 2.8580645e-39
0.3784377 0.081940912 1.1951616 2.8580645e-39
0.38184562 0.081978112 1.1957041 2.8580645e-39
0.38753244 0.082040198 1.1966096 2.8580645e-39
0.39322731 0.082102366 1.1975164 2.8580645e-39
0.39778966 0.082152165 1.1982429 2.8580645e-39
0.40235752 0.082202032 1.1989701 2.8580645e-39
0.40693095 0.082251959 1.1996983 2.8580645e-39
0.3784233 0.087328434 1.1951162 2.8580645e-39
0.38183108 0.087368079 1.1956588 2.8580645e-39
0.38751766 0.087434232 1.1965642 2.8580645e-39
0.39321232 0.08750049 1.1974708 2.8580645e-39
0.39777449 0.087553561 1.1981971 2.8580645e-39
0.40234217 0.087606706 1.1989244 2.8580645e-39
0.40691543 0.087659918 1.1996527 2.8580645e-39
0.37840891 0.092715561 1.1950707 2.8580645e-39
0.38181663 0.092757657 1.1956134 2.8580645e-39
0.387503 0.092827894 1.1965185 2.8580645e-39
0.39319739 0.092898235 1.1974254 2.8580645e-39
0.39775935 0.092954583 1.1981516 2.8580645e-39
0.40232685 0.093010999 1.1988788 2.8580645e-39
0.40689993 0.09306749 1.1996069 2.8580645e-39
0.37839743 0.097024977 1.1950345 2.8580645e-39
0.38180497 0.097069018 1.1955769 2.8580645e-39
0.3874912 0.097142525 1.1964822 2.8580645e-39
0.39318541 0.097216129 1.1973889 2.8580645e-39
0.39774722 0.097275093 1.1981151 2.8580645e-39
0.4023146 0.097334124 1.1988423 2.8580645e-39
0.40688747 0.09739323 1.1995703 2.8580645e-39
0.37838879 0.10025686 1.1950072 2.8580645e-39
0.38179049 0.10245784 1.1955315 2.8580645e-39
0.38747647 0.10253541 1.1964368 2.8580645e-39
0.39317045 0.10261311 1.1973432 2.8580645e-39
0.39773211 0.10267535 1.1980695 2.8580645e-39
0.40229926 0.10273766 1.1987965 2.8580645e-39
0.406872 0.10280004 1.1995245 2.8580645e-39
0.38177601 0.10784627 1.1954861 2.8580645e-39
0.38746175 0.10792794 1.1963915 2.8580645e-39
0.39315546 0.1080097 1.1972977 2.8580645e-39
0.39771694 0.1080752 1.1980239 2.8580645e-39
0.40228394 0.10814079 1.1987509 2.8580645e-39
0.40685648 0.10820647 1.1994789 2.8580645e-39
0.38176438 0.11215672 1.1954498 2.8580645e-39
0.38744995 0.11224163 1.1963549 2.8580645e-39
0.39314353 0.11232667 1.1972613 2.8580645e-39
0.39770481 0.11239479 1.1979874 2.8580645e-39
0.40227169 0.112463 1.1987144 2.8580645e-39
0.40684408 0.11253128 1.1994423 2.8580645e-39
0.41027683 0.11258255 1.1999887 2.8580645e-39
0.38174987 0.11754438 1.1954044 2.8580645e-39
0.38743523 0.11763338 1.1963093 2.8580645e-39
0.39312854 0.11772249 1.1972157 2.8580645e-39
0.39768967 0.11779388 1.1979418 2.8580645e-39
0.40225941 0.11678493 1.1986778 2.8580645e-39
0.40683168 0.11685584 1.1994057 2.8580645e-39
0.41026431 0.11690909 1.1999521 2.8580645e-39
0.38173535 0.12293167 1.1953589 2.8580645e-39
0.38742051 0.12302474 1.1962639 2.8580645e-39
0.39311361 0.12311794 1.1971701 2.8580645e-39
0.39767456 0.1231926 1.1978962 2.8580645e-39
0.40224409 0.12218697 1.1986322 2.8580645e-39
0.40681615 0.12226117 1.19936 2.8580645e-39
0.41024867 0.12231687 1.1999065 2.8580645e-39
0.38172376 0.12724119 1.1953225 2.8580645e-39
0.38740864 0.12733752 1.1962274 2.8580645e-39
0.39310163 0.12743399 1.1971338 2.8580645e-39
0.39766243 0.12751126 1.1978596 2.8580645e-39
0.40222877 0.12758864 1.1985866 2.8580645e-39
0.40680066 0.1276661 1.1993144 2.8580645e-39
0.41023302 0.12772426 1.1998606 2.8580645e-39
0.38170925 0.13262773 1.1952772 2.8580645e-39
0.38739398 0.13272813 1.1961821 2.8580645e-39
0.39286 0.13239303 1.1970556 2.8580645e-39
0.39765033 0.13182966 1.1978232 2.8580645e-39
0.40221652 0.13190967 1.19855 2.8580645e-39
0.40678829 0.13198975 1.1992776 2.8580645e-39
0.41022053 0.13204987 1.1998241 2.8580645e-39
0.38169479 0.13801387 1.1952318 2.8580645e-39
0.38737926 0.13811834 1.1961366 2.8580645e-39
0.39330143 0.13757975 1.1970844 2.8580645e-39
0.39763519 0.13722728 1.1977776 2.8580645e-39
0.40220121 0.13731055 1.1985044 2.8580645e-39
0.40677273 0.13739391 1.199232 2.8580645e-39
0.41020489 0.13745649 1.1997782 2.8580645e-39
0.38168317 0.14232247 1.1951954 2.8580645e-39
0.38736746 0.1424302 1.1961002 2.8580645e-39
0.39305976 0.1425381 1.1970062 2.8580645e-39
0.39762005 0.14262451 1.1977321 2.8580645e-39
0.40218586 0.14271106 1.1984587 2.8580645e-39
0.40675724 0.14279769 1.1991863 2.8580645e-39
0.41018921 0.14286274 1.1997325 2.8580645e-39
0.3828046 0.14773019 1.1953309 2.8580645e-39
0.38706905 0.14754452 1.1960117 2.8580645e-39
0.39304781 0.14685296 1.1969697 2.8580645e-39
0.39760795 0.146942 1.1976956 2.8580645e-39
0.40217364 0.14703114 1.1984222 2.8580645e-39
0.40674484 0.14712042 1.1991497 2.8580645e-39
0.41017675 0.14718741 1.1996959 2.8580645e-39
0.38279003 0.15311599 1.1952854 2.8580645e-39
0.38766435 0.15275331 1.1960649 2.8580645e-39
0.39303288 0.15224616 1.1969242 2.8580645e-39
0.39759278 0.15233846 1.19765 2.8580645e-39
0.40215826 0.15243089 1.1983765 2.8580645e-39
0.40672937 0.15252341 1.199104 2.8580645e-39
0.41073194 0.15314516 1.1997367 2.8580645e-39
0.38277841 0.15742436 1.1952492 2.8580645e-39
0.38732624 0.15751968 1.1959729 2.8580645e-39
0.39301792 0.15763898 1.1968787 2.8580645e-39
0.3975777 0.15773456 1.1976044 2.8580645e-39
0.40214297 0.15783024 1.1983309 2.8580645e-39
0.40671384 0.15792605 1.1990584 2.8580645e-39
0.41129029 0.15802197 1.1997867 2.8580645e-39
0.38276386 0.1628094 1.1952038 2.8580645e-39
0.38731444 0.16183037 1.1959366 2.8580645e-39
0.39300597 0.16195293 1.1968423 2.8580645e-39
0.39756557 0.16205111 1.1975679 2.8580645e-39
0.40213075 0.16214941 1.1982944 2.8580645e-39
0.40670145 0.16224785 1.1990217 2.8580645e-39
0.41127771 0.16234639 1.1997499 2.8580645e-39
0.38274932 0.16819406 1.1951584 2.8580645e-39
0.38729969 0.16721834 1.195891 2.8580645e-39
0.39299098 0.16734499 1.1967968 2.8580645e-39
0.39755046 0.16744642 1.1975223 2.8580645e-39
0.40211546 0.16754802 1.1982487 2.8580645e-39
0.40668595 0.1676497 1.198976 2.8580645e-39
0.41126204 0.16775154 1.1997043 2.8580645e-39
0.3827377 0.17250147 1.195122 2.8580645e-39
0.38728499 0.17260593 1.1958456 2.8580645e-39
0.39297605 0.17273664 1.1967514 2.8580645e-39
0.39753535 0.17284137 1.1974769 2.8580645e-39
0.40210009 0.1729462 1.1982031 2.8580645e-39
0.40667048 0.17305118 1.1989305 2.8580645e-39
0.41124633 0.17315628 1.1996585 2.8580645e-39
0.38348261 0.17718552 1.1952032 2.8580645e-39
0.38772875 0.17671099 1.1958835 2.8580645e-39
0.39296412 0.17704968 1.1967149 2.8580645e-39
0.39752319 0.177157 1.1974404 2.8580645e-39
0.40208787 0.17726447 1.1981666 2.8580645e-39
0.40665805 0.17737205 1.1988938 2.8580645e-39
0.41123384 0.17747977 1.199622 2.8580645e-39
0.38384783 0.18221979 1.1952211 2.8580645e-39
0.38839576 0.18233013 1.1959448 2.8580645e-39
0.39294913 0.18244059 1.1966695 2.8580645e-39
0.39750805 0.18255116 1.1973947 2.8580645e-39
0.40207258 0.18266191 1.1981211 2.8580645e-39
0.40664259 0.18277276 1.1988482 2.8580645e-39
0.41122127 0.18180302 1.1995854 2.8580645e-39
0.38421297 0.18725438 1.1952391 2.8580645e-39
0.38838097 0.18771738 1.1958994 2.8580645e-39
0.3929342 0.1878311 1.1966238 2.8580645e-39
0.39749295 0.18794495 1.1973492 2.8580645e-39
0.40205723 0.18805894 1.1980754 2.8580645e-39
0.40662709 0.18817309 1.1988025 2.8580645e-39
0.41120562 0.18720667 1.1995398 2.8580645e-39
0.38495779 0.19193973 1.1953201 2.8580645e-39
0.38836917 0.19202688 1.195863 2.8580645e-39
0.39292228 0.19214322 1.1965874 2.8580645e-39
0.39748088 0.19225968 1.1973127 2.8580645e-39
0.40204501 0.19237629 1.1980389 2.8580645e-39
0.40661466 0.19249304 1.198766 2.8580645e-39
0.41118988 0.19260994 1.1994939 2.8580645e-39
0.38494316 0.19732378 1.1952748 2.8580645e-39
0.38835439 0.19741338 1.1958176 2.8580645e-39
0.39290735 0.19753297 1.1965419 2.8580645e-39
0.3974658 0.1976527 1.1972672 2.8580645e-39
0.40202972 0.19777256 1.1979933 2.8580645e-39
0.40660229 0.19681272 1.1987295 2.8580645e-39
0.41186365 0.19716638 1.1995647 2.8580645e-39
0.38492852 0.20270747 1.1952294 2.8580645e-39
0.38833964 0.2027995 1.1957722 2.8580645e-39
0.39289236 0.20292234 1.1964965 2.8580645e-39
0.39745063 0.20304534 1.1972216 2.8580645e-39
0.4020144 0.20316848 1.1979476 2.8580645e-39
0.40658686 0.20221196 1.1986837 2.8580645e-39
0.41230658 0.20236546 1.1995937 2.8580645e-39
0.38491684 0.20701408 1.1951931 2.8580645e-39
0.38832784 0.20710808 1.1957357 2.8580645e-39
0.39288044 0.20723355 1.1964601 2.8580645e-39
0.39743853 0.20735914 1.1971852 2.8580645e-39
0.40200219 0.20748489 1.1979113 2.8580645e-39
0.40725675 0.20784573 1.1987455 2.8580645e-39
0.41274935 0.20756498 1.1996228 2.8580645e-39
0.38490224 0.21239702 1.1951478 2.8580645e-39
0.38831306 0.21249343 1.1956904 2.8580645e-39
0.39286551 0.21262215 1.1964145 2.8580645e-39
0.39742342 0.21275102 1.1971397 2.8580645e-39
0.40198991 0.21180104 1.1978748 2.8580645e-39
0.40770236 0.2119617 1.1987835 2.8580645e-39
0.41342288 0.21212263 1.1996936 2.8580645e-39
0.38488761 0.21777955 1.1951023 2.8580645e-39
0.3882983 0.2178784 1.1956449 2.8580645e-39
0.39285052 0.21801037 1.1963691 2.8580645e-39
0.39740831 0.21814249 1.1970941 2.8580645e-39
0.40197465 0.21719585 1.1978291 2.8580645e-39
0.4076868 0.2173606 1.1987379 2.8580645e-39
0.41340712 0.21752562 1.1996478 2.8580645e-39
0.38487595 0.22208527 1.195066 2.8580645e-39
0.38828653 0.22218607 1.1956085 2.8580645e-39
0.3928386 0.22232065 1.1963327 2.8580645e-39
0.39739621 0.22245538 1.1970577 2.8580645e-39
0.4019593 0.22259027 1.1977835 2.8580645e-39
0.4076713 0.22275913 1.1986922 2.8580645e-39
0.41339135 0.22292823 1.1996021 2.8580645e-39
0.38486132 0.22746702 1.1950207 2.8580645e-39
0.38827181 0.22757028 1.1955631 2.8580645e-39
0.3928237 0.2277081 1.1962872 2.8580645e-39
0.39715427 0.22740789 1.1969795 2.8580645e-39
0.40194705 0.22690549 1.197747 2.8580645e-39
0.40765882 0.22707762 1.1986557 2.8580645e-39
0.41337872 0.22724999 1.1995655 2.8580645e-39
0.38825703 0.23295411 1.1955178 2.8580645e-39
0.39280874 0.2330952 1.1962416 2.8580645e-39
0.39759579 0.23259656 1.1970084 2.8580645e-39
0.40193176 0.23229915 1.1977015 2.8580645e-39
0.40764332 0.23247534 1.1986101 2.8580645e-39
0.41336298 0.23265183 1.1995198 2.8580645e-39
0.38824522 0.23726086 1.1954813 2.8580645e-39
0.39279681 0.23740454 1.1962054 2.8580645e-39
0.39735389 0.23754841 1.1969302 2.8580645e-39
0.40191647 0.23769242 1.1976559 2.8580645e-39
0.40762782 0.23787272 1.1985644 2.8580645e-39
0.41334718 0.23805326 1.199474 2.8580645e-39
0.38823047 0.24264391 1.1954359 2.8580645e-39
0.39278185 0.24279083 1.1961598 2.8580645e-39
0.39734176 0.24186011 1.1968938 2.8580645e-39
0.40190423 0.24200675 1.1976194 2.8580645e-39
0.40761533 0.2421903 1.1985278 2.8580645e-39
0.41333461 0.24237412 1.1994375 2.8580645e-39
0.41677031 0.24248454 1.1999838 2.8580645e-39
0.38821572 0.24802659 1.1953905 2.8580645e-39
0.39276692 0.24817678 1.1961143 2.8580645e-39
0.39732668 0.24724936 1.1968483 2.8580645e-39
0.40188894 0.24739926 1.1975738 2.8580645e-39
0.40759987 0.24758689 1.198482 2.8580645e-39
0.41331887 0.24777479 1.1993917 2.8580645e-39
0.41675761 0.2468071 1.1999474 2.8580645e-39
0.38820392 0.25233242 1.1953541 2.8580645e-39
0.39275497 0.25248525 1.1960781 2.8580645e-39
0.39731157 0.25263822 1.1968027 2.8580645e-39
0.40187365 0.25279135 1.1975282 2.8580645e-39
0.40758431 0.25298309 1.1984364 2.8580645e-39
0.41330314 0.25317508 1.1993461 2.8580645e-39
0.41674173 0.2522099 1.1999016 2.8580645e-39
0.3881892 0.25771436 1.1953088 2.8580645e-39
0.39251357 0.25743172 1.1959999 2.8580645e-39
0.39729947 0.25694901 1.1967664 2.8580645e-39
0.40186143 0.25710475 1.1974919 2.8580645e-39
0.40757191 0.25729975 1.1984 2.8580645e-39
0.4132905 0.25749502 1.1993095 2.8580645e-39
0.41672581 0.25761232 1.1998558 2.8580645e-39
0.38817444 0.26309589 1.1952634 2.8580645e-39
0.39295459 0.26261693 1.1960287 2.8580645e-39
0.39728436 0.26233709 1.1967208 2.8580645e-39
0.40184608 0.26249611 1.1974463 2.8580645e-39
0.40755641 0.26269519 1.1983544 2.8580645e-39
0.41327789 0.26181468 1.1992729 2.8580645e-39
0.41671312 0.26193398 1.1998193 2.8580645e-39
0.38816261 0.2674008 1.195227 2.8580645e-39
0.39271319 0.26756272 1.1959507 2.8580645e-39
0.39726928 0.26772481 1.1966753 2.8580645e-39
0.40183082 0.26788709 1.1974007 2.8580645e-39
0.40754089 0.26809025 1.1983087 2.8580645e-39
0.41326213 0.26721388 1.1992272 2.8580645e-39
0.41669723 0.26733562 1.1997734 2.8580645e-39
0.38837644 0.27235943 1.1952214 2.8580645e-39
0.39270121 0.27186999 1.1959144 2.8580645e-39
0.39725715 0.27203467 1.1966388 2.8580645e-39
0.40181857 0.27219957 1.1973643 2.8580645e-39
0.40752849 0.27240601 1.1982722 2.8580645e-39
0.41324642 0.27261269 1.1991816 2.8580645e-39
0.41668135 0.27273688 1.1997278 2.8580645e-39
0.38927001 0.27820402 1.195317 2.8580645e-39
0.39268634 0.27725363 1.1958688 2.8580645e-39
0.39724207 0.27742162 1.1965934 2.8580645e-39
0.40180328 0.27758977 1.1973187 2.8580645e-39
0.40722799 0.27751994 1.1981835 2.8580645e-39
0.41323379 0.27693143 1.1991448 2.8580645e-39
0.41666862 0.27705759 1.1996911 2.8580645e-39
0.38925818 0.2825087 1.1952808 2.8580645e-39
0.39267141 0.28263697 1.1958234 2.8580645e-39
0.39722693 0.28280818 1.1965479 2.8580645e-39
0.401788 0.28297961 1.1972731 2.8580645e-39
0.40782526 0.28274399 1.1982367 2.8580645e-39
0.41321805 0.28232947 1.1990992 2.8580645e-39
0.41722405 0.28301972 1.1997319 2.8580645e-39
0.38924634 0.28681311 1.1952444 2.8580645e-39
0.39265946 0.28694332 1.1957872 2.8580645e-39
0.39721489 0.28711715 1.1965115 2.8580645e-39
0.40177578 0.28729117 1.1972368 2.8580645e-39
0.40748501 0.28750899 1.1981444 2.8580645e-39
0.41320229 0.28772715 1.1990535 2.8580645e-39
0.4177826 0.28790191 1.1997819 2.8580645e-39
0.38923156 0.2921932 1.195199 2.8580645e-39
0.39264452 0.29232585 1.1957417 2.8580645e-39
0.39719978 0.29250291 1.196466 2.8580645e-39
0.40176049 0.29268023 1.1971911 2.8580645e-39
0.40714484 0.29227301 1.1980523 2.8580645e-39
0.41318971 0.29204494 1.1990169 2.8580645e-39
0.41776991 0.29222232 1.1997452 2.8580645e-39
0.38921678 0.29757291 1.1951536 2.8580645e-39
0.39262962 0.29770803 1.1956962 2.8580645e-39
0.39718467 0.29788837 1.1964204 2.8580645e-39
0.40174523 0.29806891 1.1971456 2.8580645e-39
0.4077419 0.29749718 1.1981055 2.8580645e-39
0.41317394 0.29744187 1.1989713 2.8580645e-39
0.41775393 0.29762253 1.1996995 2.8580645e-39
0.38920498 0.30187643 1.1951172 2.8580645e-39
0.39261764 0.30201346 1.1956599 2.8580645e-39
0.39717257 0.30219638 1.1963841 2.8580645e-39
0.40173298 0.30237955 1.1971092 2.8580645e-39
0.40744159 0.30260879 1.1980168 2.8580645e-39
0.41315824 0.30283836 1.1989256 2.8580645e-39
0.41773802 0.3030223 1.1996537 3.1346514e-39
0.40177166 -0.52013123 1.2036958 2.8580645e-39
0.40751171 -0.52052772 1.2046134 2.8580645e-39
0.38231909 -0.51770061 1.2005774 2.8580645e-39
0.38802886 -0.51809418 1.2014902 2.8580645e-39
0.39260021 -0.51732105 1.2022122 2.8580645e-39
0.39718008 -0.51763618 1.2029444 2.8580645e-39
0.40176246 -0.51686174 1.2036682 2.8580645e-39
0.40750232 -0.51725578 1.2045859 2.8580645e-39
0.38259044 -0.51255685 1.2005794 2.8580645e-39
0.38801408 -0.51265526 1.2014443 2.8580645e-39
0.39258519 -0.51187879 1.2021662 2.8580645e-39
0.39716488 -0.51219058 1.2028985 2.8580645e-39
0.40175015 -0.51250267 1.2036314 2.8580645e-39
0.40748987 -0.51289338 1.204549 2.8580645e-39
0.38196519 -0.50727504 1.2004375 2.8580645e-39
0.38799924 -0.50721669 1.2013984 2.8580645e-39
0.39257324 -0.50752538 1.2021296 2.8580645e-39
0.39715272 -0.50783443 1.2028615 2.8580645e-39
0.40173787 -0.5081439 1.2035946 2.8580645e-39
0.40747428 -0.50744081 1.2045027 2.8580645e-39
0.37999642 -0.5023315 1.2000843 2.8580645e-39
0.38341916 -0.5025605 1.2006315 2.8580645e-39
0.38798741 -0.50286615 1.2013617 2.8580645e-39
0.3925612 -0.50317216 1.2020929 2.8580645e-39
0.39713755 -0.50238967 1.2028157 2.8580645e-39
0.40172246 -0.5026958 1.2035486 2.8580645e-39
0.40745866 -0.50198859 1.2044568 2.8580645e-39
0.37998486 -0.49798584 1.2000477 2.8580645e-39
0.38363391 -0.49757576 1.2006257 2.8580645e-39
0.38797259 -0.49742839 1.2013158 2.8580645e-39
0.39254621 -0.49773109 1.2020469 2.8580645e-39
0.39712238 -0.49694529 1.2027696 2.8580645e-39
0.40170708 -0.49724805 1.2035024 2.8580645e-39
0.40744618 -0.49762711 1.2044199 2.8580645e-39
0.37997323 -0.49364048 1.2000111 2.8580645e-39
0.38316339 -0.49232894 1.2005088 2.8580645e-39
0.38795775 -0.49199092 1.20127 2.8580645e-39
0.39253122 -0.49229032 1.202001 2.8580645e-39
0.39711022 -0.49259007 1.2027328 2.8580645e-39
0.4016948 -0.49289021 1.2034657 2.8580645e-39
0.40776056 -0.49281999 1.2044315 2.8580645e-39
0.38337818 -0.48734495 1.2005032 2.8580645e-39
0.38794595 -0.48764133 1.2012334 2.8580645e-39
0.39251924 -0.48793808 1.2019643 2.8580645e-39
0.39732534 -0.48759669 1.2027271 2.8580645e-39
0.40167949 -0.4874433 1.2034196 2.8580645e-39
0.40713018 -0.48752356 1.2042887 2.8580645e-39
0.38336647 -0.48299825 1.2004665 2.8580645e-39
0.38816079 -0.48265418 1.2012277 2.8580645e-39
0.39250422 -0.48249808 1.2019184 2.8580645e-39
0.39685264 -0.48234168 1.2026098 2.8580645e-39
0.40166408 -0.48199674 1.2033736 2.8580645e-39
0.40740252 -0.48236406 1.2042907 2.8580645e-39
0.38335189 -0.47756529 1.2004207 2.8580645e-39
0.38768956 -0.4774062 1.2011106 2.8580645e-39
0.39248922 -0.47705853 1.2018725 2.8580645e-39
0.39706773 -0.47734898 1.2026042 2.8580645e-39
0.4016518 -0.47763979 1.2033367 2.8580645e-39
0.40739009 -0.47800383 1.2042538 2.8580645e-39
0.4119831 -0.47720471 1.2049792 2.8580645e-39
0.38333723 -0.47213268 1.200375 2.8580645e-39
0.38790447 -0.47241977 1.2011049 2.8580645e-39
0.39247724 -0.47270721 1.2018356 2.8580645e-39
0.39705557 -0.47299504 1.2025675 2.8580645e-39
0.40186706 -0.472644 1.2033311 2.8580645e-39
0.4073745 -0.47255388 1.2042079 2.8580645e-39
0.41196734 -0.47175151 1.2049332 2.8580645e-39
0.38332555 -0.46778691 1.2003384 2.8580645e-39
0.38789263 -0.46807134 1.2010683 2.8580645e-39
0.39246225 -0.46726844 1.2017897 2.8580645e-39
0.3970404 -0.4675529 1.2025214 2.8580645e-39
0.40139359 -0.46738777 1.2032137 2.8580645e-39
0.40735888 -0.46710435 1.2041618 2.8580645e-39
0.4119547 -0.46738929 1.2048962 2.8580645e-39
0.38331091 -0.46235511 1.2002926 2.8580645e-39
0.38787782 -0.4626362 1.2010224 2.8580645e-39
0.39244726 -0.46183002 1.201744 2.8580645e-39
0.39702526 -0.46211118 1.2024755 2.8580645e-39
0.40160879 -0.46239269 1.203208 2.8580645e-39
0.4073464 -0.46274498 1.2041249 2.8580645e-39
0.41194206 -0.46302724 1.2048593 2.8580645e-39
0.38329631 -0.45692363 1.2002467 2.8580645e-39
0.38786301 -0.45720148 1.2009765 2.8580645e-39
0.39243528 -0.4574796 1.2017072 2.8580645e-39
0.39701313 -0.45775813 1.2024387 2.8580645e-39
0.40159655 -0.45803693 1.2031713 2.8580645e-39
0.40761864 -0.45758602 1.204127 2.8580645e-39
0.4119263 -0.45757517 1.2048131 2.8580645e-39
0.38328463 -0.45257884 1.2002102 2.8580645e-39
0.38785118 -0.45285395 1.2009399 2.8580645e-39
0.3924233 -0.45312947 1.2016705 2.8580645e-39
0.39699793 -0.45231715 1.2023927 2.8580645e-39
0.40158114 -0.4525927 1.2031251 2.8580645e-39
0.40698853 -0.45229506 1.2039843 2.8580645e-39
0.41191056 -0.45212346 1.204767 2.8580645e-39
0.38384187 -0.44772506 1.2002602 2.8580645e-39
0.38783637 -0.44741997 1.200894 2.8580645e-39
0.39240828 -0.44769216 1.2016246 2.8580645e-39
0.39698279 -0.44687662 1.2023469 2.8580645e-39
0.40156582 -0.44714877 1.2030791 2.8580645e-39
0.40730277 -0.4474895 1.2039959 2.8580645e-39
0.41189793 -0.44776237 1.20473 2.8580645e-39
0.38439623 -0.44178498 1.2003009 2.8580645e-39
0.38782156 -0.44198641 1.2008482 2.8580645e-39
0.39239329 -0.44225526 1.2015787 2.8580645e-39
0.39697066 -0.44252449 1.2023101 2.8580645e-39
0.40270042 -0.44286144 1.2032256 2.8580645e-39
0.40843835 -0.44319889 1.2041425 2.8580645e-39
0.41188216 -0.4423115 1.2046841 2.8580645e-39
0.38438445 -0.43744037 1.2002642 2.8580645e-39
0.38780969 -0.43763983 1.2008115 2.8580645e-39
0.39238134 -0.43790606 1.201542 2.8580645e-39
0.3969585 -0.43817261 1.2022734 2.8580645e-39
0.40268505 -0.43741751 1.2031797 2.8580645e-39
0.40842274 -0.43775079 1.2040963 2.8580645e-39
0.4126319 -0.43654189 1.2047573 2.8580645e-39
0.38437277 -0.43309605 1.2002276 2.8580645e-39
0.38802454 -0.43265471 1.2008059 2.8580645e-39
0.39236632 -0.43246993 1.2014961 2.8580645e-39
0.39694333 -0.43273315 1.2022274 2.8580645e-39
0.40266964 -0.43197393 1.2031336 2.8580645e-39
0.40840712 -0.4323031 1.2040503 2.8580645e-39
0.41300359 -0.43256676 1.2047846 2.8580645e-39
0.38435808 -0.42766607 1.2001818 2.8580645e-39
0.38755348 -0.4274134 1.200689 2.8580645e-39
0.39235139 -0.4270342 1.2014502 2.8580645e-39
0.39692813 -0.42729408 1.2021813 2.8580645e-39
0.4026573 -0.42761943 1.2030969 2.8580645e-39
0.40839458 -0.42794526 1.2040135 2.8580645e-39
0.41321903 -0.42756519 1.2047789 2.8580645e-39
0.38434345 -0.4222365 1.2001362 2.8580645e-39
0.3877683 -0.42242897 1.2006832 2.8580645e-39
0.39233938 -0.42268592 1.2014135 2.8580645e-39
0.39691603 -0.42294317 1.2021447 2.8580645e-39
0.4029713 -0.42281693 1.2031084 2.8580645e-39
0.40837896 -0.42249832 1.2039673 2.8580645e-39
0.4127439 -0.42230701 1.2046613 2.8580645e-39
0.3843317 -0.41789308 1.2000995 2.8580645e-39
0.38775647 -0.41808361 1.2006466 2.8580645e-39
0.39232442 -0.41725096 1.2013676 2.8580645e-39
0.39690086 -0.41750491 1.2020988 2.8580645e-39
0.40234217 -0.41753462 1.202966 2.8580645e-39
0.40836331 -0.41705176 1.2039213 2.8580645e-39
0.41295931 -0.41730613 1.2046555 2.8580645e-39
0.38431704 -0.41246423 1.2000537 2.8580645e-39
0.38774166 -0.41265225 1.2006007 2.8580645e-39
0.39230943 -0.41181636 1.2013218 2.8580645e-39
0.39688569 -0.41206697 1.2020528 2.8580645e-39
0.40261421 -0.4123807 1.2029681 2.8580645e-39
0.40835083 -0.41269484 1.2038844 2.8580645e-39
0.4129467 -0.41294652 1.2046187 2.8580645e-39
0.38430533 -0.40812144 1.2000171 2.8580645e-39
0.38772687 -0.40722138 1.200555 2.8580645e-39
0.39229745 -0.407469 1.201285 2.8580645e-39
0.39687356 -0.40771693 1.2020161 2.8580645e-39
0.40260187 -0.40802732 1.2029313 2.8580645e-39
0.40833521 -0.40724909 1.2038385 2.8580645e-39
0.41293088 -0.40749741 1.2045724 2.8580645e-39
0.38771501 -0.40287691 1.2005184 2.8580645e-39
0.39228547 -0.40312192 1.2012484 2.8580645e-39
0.39685842 -0.40227982 1.2019702 2.8580645e-39
0.40258649 -0.40258607 1.2028853 2.8580645e-39
0.40831959 -0.40180367 1.2037923 2.8580645e-39
0.41291505 -0.40204874 1.2045265 2.8580645e-39
0.38770023 -0.39744672 1.2004725 2.8580645e-39
0.39227048 -0.39768848 1.2012026 2.8580645e-39
0.39684325 -0.39684311 1.2019243 2.8580645e-39
0.40257108 -0.39714518 1.2028393 2.8580645e-39
0.40830711 -0.39744771 1.2037554 2.8580645e-39
0.41290241 -0.39769006 1.2044896 2.8580645e-39
0.38768542 -0.39201695 1.2004268 2.8580645e-39
0.39225551 -0.39225537 1.2011567 2.8580645e-39
0.39683113 -0.39249405 1.2018876 2.8580645e-39
0.4025588 -0.39279279 1.2028025 2.8580645e-39
0.40829462 -0.39309198 1.2037187 2.8580645e-39
0.41288662 -0.39224216 1.2044433 2.8580645e-39
0.41633329 -0.39133155 1.2049853 2.8580645e-39
0.38767362 -0.38767347 1.2003901 2.8580645e-39
0.39224356 -0.38790917 1.20112 2.8580645e-39
0.396819 -0.38814521 1.2018509 2.8580645e-39
0.40254343 -0.38735268 1.2027564 2.8580645e-39
0.40827897 -0.38764775 1.2036725 2.8580645e-39
0.41287082 -0.38679463 1.2043973 2.8580645e-39
0.41632053 -0.38697159 1.2049484 2.8580645e-39
0.38765883 -0.38224447 1.2003444 2.8580645e-39
0.39222851 -0.3824769 1.2010742 2.8580645e-39
0.39680386 -0.38270959 1.201805 2.8580645e-39
0.40252802 -0.38191298 1.2027105 2.8580645e-39
0.40826336 -0.38220385 1.2036266 2.8580645e-39
0.41285816 -0.3824369 1.2043605 2.8580645e-39
0.41630778 -0.38261184 1.2049115 2.8580645e-39
0.38764405 -0.37681583 1.2002985 2.8580645e-39
0.39221358 -0.37704495 1.2010283 2.8580645e-39
0.39678869 -0.37727433 1.201759 2.8580645e-39
0.40251568 -0.37756148 1.2026738 2.8580645e-39
0.40825087 -0.37784907 1.2035897 2.8580645e-39
0.41284552 -0.37807944 1.2043235 2.8580645e-39
0.41629499 -0.37825239 1.2048745 2.8580645e-39
0.38763222 -0.37247324 1.200262 2.8580645e-39
0.39220163 -0.37269974 1.2009917 2.8580645e-39
0.39677659 -0.37292647 1.2017224 2.8580645e-39
0.40282965 -0.37276024 1.2026854 2.8580645e-39
0.40823522 -0.37240598 1.2035437 2.8580645e-39
0.41282973 -0.37263301 1.2042774 2.8580645e-39
0.41627908 -0.37280348 1.2048284 2.8580645e-39
0.38762039 -0.36813095 1.2002254 2.8580645e-39
0.39218664 -0.36726856 1.2009459 2.8580645e-39
0.39676145 -0.36749205 1.2016765 2.8580645e-39
0.40220067 -0.3674857 1.202543 2.8580645e-39
0.40821964 -0.36696327 1.2034976 2.8580645e-39
0.4128139 -0.36718696 1.2042314 2.8580645e-39
0.41626316 -0.36735493 1.2047822 2.8580645e-39
0.38817787 -0.36327362 1.2002753 2.8580645e-39
0.39217168 -0.3618378 1.2009 2.8580645e-39
0.39674628 -0.36205792 1.2016306 2.8580645e-39
0.40247265 -0.36233345 1.202545 2.8580645e-39
0.40820715 -0.36260942 1.2034608 2.8580645e-39
0.4128013 -0.36283049 1.2041945 2.8580645e-39
0.41625041 -0.36299643 1.2047453 2.8580645e-39
0.38873234 -0.35733056 1.200316 2.8580645e-39
0.39215973 -0.35749352 1.2008634 2.8580645e-39
0.39673415 -0.35771099 1.2015939 2.8580645e-39
0.40246034 -0.3579832 1.2025083 2.8580645e-39
0.40842238 -0.35761362 1.2034552 2.8580645e-39
0.4127855 -0.35738519 1.2041484 2.8580645e-39
0.41623446 -0.35754868 1.2046992 2.8580645e-39
0.38872045 -0.35298851 1.2002794 2.8580645e-39
0.39214772 -0.35314947 1.2008266 2.8580645e-39
0.39671898 -0.35227773 1.201548 2.8580645e-39
0.40244496 -0.35254574 1.2024624 2.8580645e-39
0.40794826 -0.35236809 1.2033377 2.8580645e-39
0.41276968 -0.35194033 1.2041024 2.8580645e-39
0.41621852 -0.35210133 1.204653 2.8580645e-39
0.38870564 -0.34756136 1.2002336 2.8580645e-39
0.39213276 -0.34771982 1.2007809 2.8580645e-39
0.39670384 -0.34684476 1.2015021 2.8580645e-39
0.40242958 -0.34710872 1.2024164 2.8580645e-39
0.40816343 -0.34737301 1.2033319 2.8580645e-39
0.4127571 -0.34758475 1.2040656 2.8580645e-39
0.41735625 -0.3477968 1.2047999 2.8580645e-39
0.38869083 -0.34213454 1.2001878 2.8580645e-39
0.3921178 -0.34229055 1.2007351 2.8580645e-39
0.39669174 -0.34249872 1.2014654 2.8580645e-39
0.4024173 -0.34275937 1.2023797 2.8580645e-39
0.40815094 -0.34302032 1.2032952 2.8580645e-39
0.41297236 -0.34258652 1.2040598 2.8580645e-39
0.41734028 -0.34234938 1.2047538 2.8580645e-39
0.38867897 -0.33779344 1.2001512 2.8580645e-39
0.39210582 -0.33794743 1.2006984 2.8580645e-39
0.39667964 -0.338153 1.2014288 2.8580645e-39
0.40240192 -0.33732307 1.2023337 2.8580645e-39
0.40813532 -0.33757994 1.2032491 2.8580645e-39
0.41249752 -0.33733982 1.2039422 2.8580645e-39
0.41732433 -0.33690232 1.2047076 2.8580645e-39
0.38866416 -0.33236742 1.2001053 2.8580645e-39
0.39209089 -0.33251897 1.2006526 2.8580645e-39
0.39666447 -0.33272117 1.2013828 2.8580645e-39
0.40238652 -0.33188722 1.2022878 2.8580645e-39
0.40811974 -0.33213985 1.2032031 2.8580645e-39
0.41271284 -0.33234233 1.2039365 2.8580645e-39
0.41731155 -0.33254501 1.2046707 2.8580645e-39
0.38864928 -0.32694176 1.2000597 2.8580645e-39
0.39207593 -0.3270908 1.2006067 2.8580645e-39
0.39664933 -0.32728976 1.2013369 2.8580645e-39
0.40237418 -0.32753876 1.202251 2.8580645e-39
0.40810728 -0.32778817 1.2031664 2.8580645e-39
0.41270021 -0.32798791 1.2038996 2.8580645e-39
0.41729876 -0.32818797 1.2046338 2.8580645e-39
0.38863748 -0.32260156 1.2000231 2.8580645e-39
0.39206395 -0.32274866 1.2005701 2.8580645e-39
0.3966372 -0.32294494 1.2013001 2.8580645e-39
0.40268803 -0.32273871 1.2022626 2.8580645e-39
0.40809169 -0.32234886 1.2031204 2.8580645e-39
0.41268441 -0.32254535 1.2038536 2.8580645e-39
0.41728273 -0.32274202 1.2045878 2.8580645e-39
0.39204898 -0.3173213 1.2005243 2.8580645e-39
0.39662206 -0.31751427 1.2012544 2.8580645e-39
0.40205932 -0.31747192 1.2021203 2.8580645e-39
0.40807605 -0.31691003 1.2030742 2.8580645e-39
0.41266865 -0.31710315 1.2038076 2.8580645e-39
0.41726679 -0.31729653 1.2045417 2.8580645e-39
0.39203405 -0.31189436 1.2004786 2.8580645e-39
0.39660695 -0.31208405 1.2012086 2.8580645e-39
0.4023312 -0.31232145 1.2021223 2.8580645e-39
0.40806359 -0.31255922 1.2030375 2.8580645e-39
0.41265598 -0.31274971 1.2037706 2.8580645e-39
0.41725403 -0.31294042 1.2045047 2.8580645e-39
0.39202207 -0.30755311 1.200442 2.8580645e-39
0.39659482 -0.30774015 1.2011719 2.8580645e-39
0.40231887 -0.30797425 1.2020856 2.8580645e-39
0.40805107 -0.30820867 1.2030007 2.8580645e-39
0.41264021 -0.30730829 1.2037245 2.8580645e-39
0.41723809 -0.30749562 1.2044587 2.8580645e-39
0.4206835 -0.30545753 1.2049912 2.8580645e-39
0.39223677 -0.3025701 1.2004362 2.8580645e-39
0.39657965 -0.30231065 1.201126 2.8580645e-39
0.40230352 -0.30254063 1.2020397 2.8580645e-39
0.40803549 -0.30277094 1.2029548 2.8580645e-39
0.41262442 -0.30186722 1.2036786 2.8580645e-39
0.41722208 -0.30205131 1.2044126 2.8580645e-39
0.42067385 -0.30218947 1.2049636 2.8580645e-39
0.39176545 -0.29734308 1.2003193 2.8580645e-39
0.39725047 -0.29669139 1.2011878 2.8580645e-39
0.40274692 -0.29734272 1.2020687 2.8580645e-39
0.40801993 -0.29733354 1.2029088 2.8580645e-39
0.41261181 -0.29751474 1.2036418 2.8580645e-39
0.4172093 -0.29769611 1.2043756 2.8580645e-39
0.42066097 -0.29783231 1.2049267 2.8580645e-39
0.3919802 -0.29236081 1.2003137 2.8580645e-39
0.39769664 -0.29258302 1.2012261 2.8580645e-39
0.40342122 -0.29280561 1.2021399 2.8580645e-39
0.40800738 -0.29298395 1.202872 2.8580645e-39
0.41259918 -0.29316247 1.2036049 2.8580645e-39
0.41719332 -0.29225251 1.2043296 2.8580645e-39
0.42064485 -0.29238623 1.2048806 2.8580645e-39
0.39196822 -0.28802073 1.2002771 2.8580645e-39
0.3980101 -0.28778672 1.2012377 2.8580645e-39
0.40340582 -0.28737235 1.202094 2.8580645e-39
0.4079918 -0.28754735 1.202826 2.8580645e-39
0.41258338 -0.28772256 1.2035589 2.8580645e-39
0.41717738 -0.28680936 1.2042835 2.8580645e-39
0.42062873 -0.28694054 1.2048345 2.8580645e-39
0.39195326 -0.28259605 1.2002313 2.8580645e-39
0.39738253 -0.28252861 1.2010956 2.8580645e-39
0.40339041 -0.28193945 1.2020481 2.8580645e-39
0.40797621 -0.28211111 1.20278 2.8580645e-39
0.41256762 -0.28228301 1.2035128 2.8580645e-39
0.41716462 -0.28245512 1.2042466 2.8580645e-39
0.42061585 -0.28258431 1.2047975 2.8580645e-39
0.39232007 -0.27754736 1.2002493 2.8580645e-39
0.39765415 -0.2773824 1.2010976 2.8580645e-39
0.40337807 -0.27759343 1.2020113 2.8580645e-39
0.40796372 -0.27776244 1.2027433 2.8580645e-39
0.41255498 -0.27793169 1.2034761 2.8580645e-39
0.41715181 -0.27810112 1.2042098 2.8580645e-39
0.42060298 -0.27822834 1.2047606 2.8580645e-39
0.39306855 -0.27287406 1.2003311 2.8580645e-39
0.39764202 -0.27304 1.2010611 2.8580645e-39
0.40359306 -0.27260405 1.2020056 2.8580645e-39
0.40794817 -0.27232701 1.2026972 2.8580645e-39
0.41253921 -0.27249292 1.2034301 2.8580645e-39
0.41713592 -0.27265903 1.2041637 2.8580645e-39
0.42058685 -0.27278376 1.2047144 2.8580645e-39
0.39305356 -0.26744971 1.2002853 2.8580645e-39
0.39762682 -0.26761234 1.2010152 2.8580645e-39
0.40311998 -0.26737314 1.2018884 2.8580645e-39
0.40793258 -0.26689196 1.2026513 2.8580645e-39
0.41252342 -0.26705456 1.2033839 2.8580645e-39
0.41711992 -0.26721734 1.2041175 2.8580645e-39
0.42057079 -0.26733956 1.2046683 2.8580645e-39
0.3930386 -0.26202574 1.2002397 2.8580645e-39
0.39761162 -0.26218507 1.2009695 2.8580645e-39
0.40333498 -0.26238447 1.2018828 2.8580645e-39
0.40792009 -0.26254421 1.2026145 2.8580645e-39
0.41251078 -0.26270413 1.2033472 2.8580645e-39
0.41710716 -0.26286429 1.2040807 2.8580645e-39
0.42132425 -0.26264822 1.2047508 2.8580645e-39
0.39302659 -0.25768685 1.2002029 2.8580645e-39
0.39759949 -0.25784355 1.2009326 2.8580645e-39
0.40332264 -0.25803965 1.2018461 2.8580645e-39
0.40790761 -0.25819671 1.2025778 2.8580645e-39
0.41249502 -0.25726655 1.2033012 2.8580645e-39
0.41709116 -0.25742337 1.2040347 2.8580645e-39
0.42169297 -0.2575804 1.204769 2.8580645e-39
0.3930116 -0.25226367 1.2001572 2.8580645e-39
0.39758435 -0.25241706 1.200887 2.8580645e-39
0.4033072 -0.25260904 1.2018002 2.8580645e-39
0.40789202 -0.25276282 1.2025317 2.8580645e-39
0.41247928 -0.25182936 1.2032552 2.8580645e-39
0.41707522 -0.25198287 1.2039886 2.8580645e-39
0.42167675 -0.25213653 1.2047229 2.8580645e-39
0.39299661 -0.24684086 1.2001114 2.8580645e-39
0.39756918 -0.24699093 1.2008411 2.8580645e-39
0.40329182 -0.24717876 1.2017543 2.8580645e-39
0.40787643 -0.24732924 1.2024858 2.8580645e-39
0.41246665 -0.2474799 1.2032183 2.8580645e-39
0.41706246 -0.24763075 1.2039517 2.8580645e-39
0.42166385 -0.24778177 1.204686 2.8580645e-39
0.39298463 -0.24250291 1.2000747 2.8580645e-39
0.39755702 -0.24265034 1.2008044 2.8580645e-39
0.40327948 -0.24283488 1.2017175 2.8580645e-39
0.40786397 -0.2429827 1.2024491 2.8580645e-39
0.41245404 -0.24313071 1.2031815 2.8580645e-39
0.41727772 -0.24263349 1.2039461 2.8580645e-39
0.4216477 -0.24233867 1.2046399 2.8580645e-39
0.39297262 -0.23816523 1.2000382 2.8580645e-39
0.39782846 -0.2375052 1.2008065 2.8580645e-39
0.40326414 -0.2374054 1.2016716 2.8580645e-39
0.40784836 -0.23754992 1.2024032 2.8580645e-39
0.41243827 -0.23769458 1.2031355 2.8580645e-39
0.4168025 -0.23739703 1.2038285 2.8580645e-39
0.42163157 -0.23689601 1.2045938 2.8580645e-39
0.39296362 -0.23491214 1.2000107 2.8580645e-39
0.3972013 -0.23225485 1.2006645 2.8580645e-39
0.40324867 -0.2319763 1.2016257 2.8580645e-39
0.4078328 -0.2321175 1.2023572 2.8580645e-39
0.41242248 -0.23225889 1.2030895 2.8580645e-39
0.41701776 -0.23240045 1.2038227 2.8580645e-39
0.42161867 -0.23254217 1.2045569 2.8580645e-39
0.39751455 -0.2274604 1.2006761 2.8580645e-39
0.40323642 -0.22763337 1.2015891 2.8580645e-39
0.40782034 -0.22777191 1.2023205 2.8580645e-39
0.41240984 -0.22791064 1.2030528 2.8580645e-39
0.417005 -0.22804953 1.2037859 2.8580645e-39
0.42160577 -0.2281886 1.20452 2.8580645e-39
0.39750242 -0.223121 1.2006394 2.8580645e-39
0.40322101 -0.22220503 1.2015432 2.8580645e-39
0.40780473 -0.22234029 1.2022744 2.8580645e-39
0.41239414 -0.22247571 1.2030067 2.8580645e-39
0.41698906 -0.22261126 1.2037399 2.8580645e-39
0.42158961 -0.22274701 1.2044739 2.8580645e-39
0.39748725 -0.21769716 1.2005935 2.8580645e-39
0.40320557 -0.21677712 1.2014972 2.8580645e-39
0.40778917 -0.21690907 1.2022285 2.8580645e-39
0.41237834 -0.21704115 1.2029607 2.8580645e-39
0.41697311 -0.21717341 1.2036939 2.8580645e-39
0.42157346 -0.21730584 1.2044277 2.8580645e-39
0.42502725 -0.21740526 1.2049787 2.8580645e-39
0.39747205 -0.2122737 1.2005478 2.8580645e-39
0.4031933 -0.2124351 1.2014606 2.8580645e-39
0.40777668 -0.21256438 1.2021918 2.8580645e-39
0.41236573 -0.21269384 1.2029239 2.8580645e-39
0.41696033 -0.21282344 1.2036569 2.8580645e-39
0.42156053 -0.21295319 1.2043909 2.8580645e-39
0.42501426 -0.21305063 1.2049419 2.8580645e-39
0.39745995 -0.20793523 1.2005112 2.8580645e-39
0.40318093 -0.20809332 1.2014239 2.8580645e-39
0.40776426 -0.20821996 1.2021551 2.8580645e-39
0.41234997 -0.20726006 1.202878 2.8580645e-39
0.41694438 -0.20738633 1.2036109 2.8580645e-39
0.422407 -0.20726439 1.2044802 2.8580645e-39
0.42500448 -0.20978482 1.2049142 2.8580645e-39
0.39744484 -0.20251253 1.2004653 2.8580645e-39
0.40316555 -0.20266648 1.201378 2.8580645e-39
0.40774867 -0.20278983 1.2021091 2.8580645e-39
0.4123342 -0.20182666 1.202832 2.8580645e-39
0.41692844 -0.20194966 1.2035649 2.8580645e-39
0.42267945 -0.2021036 1.2044823 2.8580645e-39
0.39742962 -0.19709022 1.2004195 2.8580645e-39
0.40315017 -0.19724005 1.2013321 2.8580645e-39
0.40773308 -0.1973601 1.2020632 2.8580645e-39
0.41232157 -0.19748026 1.2027951 2.8580645e-39
0.41691568 -0.19760059 1.203528 2.8580645e-39
0.42266646 -0.19775121 1.2044455 2.8580645e-39
