# .PCD v0.7 - Point Cloud Data file format
VERSION 0.7
FIELDS x y z rgb
SIZE 4 4 4 4
TYPE F F F F
COUNT 1 1 1 1
WIDTH 1011
HEIGHT 1
VIEWPOINT 0 0 0 1 0 0 0
POINTS 1011
DATA ascii
0.34711251 0.30317423 0.9741202 7.3756504e-39
0.35238525 0.30317435 0.97412056 7.3756504e-39
0.357658 0.30317447 0.97412103 7.3756504e-39
0.36293074 0.30317459 0.97412133 7.3756504e-39
0.36820349 0.30317467 0.97412175 7.3756504e-39
0.3725974 0.30317479 0.97412199 7.3756504e-39
0.37699139 0.30317488 0.97412235 7.3756504e-39
0.38226414 0.303175 0.9741227 7.3756504e-39
0.38753688 0.30317512 0.97412306 7.3756504e-39
0.39280963 0.30317524 0.97412348 7.3756504e-39
0.39808241 0.30317536 0.97412378 7.3756504e-39
0.40247637 0.30317545 0.97412413 7.3756504e-39
0.40687037 0.30317554 0.97412443 7.3756504e-39
0.41214314 0.30317566 0.97412485 7.3756504e-39
0.41741595 0.30317578 0.97412521 7.3756504e-39
0.42268872 0.3031759 0.97412556 7.3756504e-39
0.4279615 0.30317602 0.97412592 7.3756504e-39
0.4332343 0.30317613 0.97412634 7.3756504e-39
0.43762827 0.30317622 0.97412658 7.3756504e-39
0.44202223 0.30317631 0.97412688 7.3756504e-39
0.4472951 0.30317643 0.97412735 7.3756504e-39
0.45256791 0.30317655 0.97412771 7.3756504e-39
0.45784068 0.30317664 0.97412801 7.3756504e-39
0.46311355 0.30317679 0.97412848 7.3756504e-39
0.46750754 0.30317688 0.97412878 7.3756504e-39
0.47190154 0.30317697 0.97412902 7.3756504e-39
0.4771744 0.30317709 0.97412944 7.3756504e-39
0.48244727 0.30317724 0.97412986 7.3756504e-39
0.48772001 0.30317733 0.97413015 7.3756504e-39
0.49299288 0.30317745 0.97413045 7.3756504e-39
0.49738696 0.30317754 0.97413093 7.3756504e-39
0.50178099 0.30317762 0.97413117 7.3756504e-39
0.50705379 0.30317774 0.97413152 7.3756504e-39
0.51232672 0.30317786 0.97413188 7.3756504e-39
0.51759952 0.30317798 0.9741323 7.3756504e-39
0.52287239 0.3031781 0.97413272 7.3756504e-39
0.52814525 0.30317822 0.97413301 7.3756504e-39
0.53253931 0.30317831 0.97413337 7.3756504e-39
0.53693336 0.3031784 0.97413367 7.3756504e-39
0.54220623 0.30317852 0.97413403 7.3756504e-39
0.54747909 0.30317864 0.97413445 7.3756504e-39
0.55275202 0.30317876 0.97413474 7.3756504e-39
0.55802488 0.30317888 0.97413516 7.3756504e-39
0.56154013 0.30317897 0.9741354 7.3756504e-39
-0.56308722 0.30320081 0.97988611 7.3756504e-39
-0.5577836 0.30320093 0.97988647 7.3756504e-39
-0.55248004 0.30320105 0.97988683 7.3756504e-39
-0.54717642 0.30320117 0.97988725 7.3756504e-39
-0.5418728 0.30320129 0.97988766 7.3756504e-39
-0.53745317 0.30320138 0.97988796 7.3756504e-39
-0.53303349 0.30320147 0.97988826 7.3756504e-39
-0.52772987 0.30320159 0.97988862 7.3756504e-39
-0.52242625 0.30320171 0.97988898 7.3756504e-39
-0.51712263 0.30320182 0.97988939 7.3756504e-39
-0.51181901 0.30320194 0.97988969 7.3756504e-39
-0.50739932 0.30320203 0.97989005 7.3756504e-39
-0.50297964 0.30320212 0.97989035 7.3756504e-39
-0.49767601 0.30320224 0.97989082 7.3756504e-39
-0.49237236 0.30320236 0.97989112 7.3756504e-39
-0.48706868 0.30320248 0.97989148 7.3756504e-39
-0.48264903 0.30320257 0.9798919 7.3756504e-39
-0.47822928 0.30320272 0.97989219 7.3756504e-39
-0.47292557 0.30320278 0.97989249 7.3756504e-39
-0.46762195 0.3032029 0.97989291 7.3756504e-39
-0.46231833 0.30320302 0.97989339 7.3756504e-39
-0.45701465 0.30320314 0.97989368 7.3756504e-39
-0.45259488 0.30320323 0.97989392 7.3756504e-39
-0.44817519 0.30320331 0.97989434 7.3756504e-39
-0.44287154 0.30320346 0.9798947 7.3756504e-39
-0.43756783 0.30320358 0.97989506 7.3756504e-39
-0.43226418 0.30320367 0.97989541 7.3756504e-39
-0.42696047 0.30320382 0.97989583 7.3756504e-39
-0.42254072 0.30320388 0.97989613 7.3756504e-39
-0.41812095 0.30320397 0.97989637 7.3756504e-39
-0.41281724 0.30320409 0.97989678 7.3756504e-39
-0.40751353 0.30320427 0.9798972 7.3756504e-39
-0.40220985 0.30320436 0.97989756 7.3756504e-39
-0.39690614 0.30320445 0.97989798 7.3756504e-39
-0.39248639 0.30320457 0.97989827 7.3756504e-39
-0.38806662 0.30320466 0.97989863 7.3756504e-39
-0.38276291 0.30320477 0.97989893 7.3756504e-39
-0.3774592 0.30320492 0.97989941 7.3756504e-39
-0.37215543 0.30320501 0.9798997 7.3756504e-39
-0.36685166 0.30320513 0.97990006 7.3756504e-39
-0.36243191 0.30320525 0.97990042 7.3756504e-39
-0.35801211 0.30320534 0.97990078 7.3756504e-39
-0.35270837 0.30320546 0.97990108 7.3756504e-39
-0.34740463 0.30320552 0.97990149 7.3756504e-39
-0.34210089 0.3032057 0.97990197 7.3756504e-39
-0.33679712 0.30320582 0.97990227 7.3756504e-39
-0.33237728 0.30320588 0.97990251 7.3756504e-39
-0.32795748 0.303206 0.9799028 7.3756504e-39
-0.32265374 0.30320612 0.97990328 7.3756504e-39
-0.31734994 0.30320624 0.97990364 7.3756504e-39
-0.31204614 0.30320632 0.97990394 7.3756504e-39
-0.30762637 0.30320644 0.97990435 7.3756504e-39
-0.30320653 0.30320653 0.97990465 7.3756504e-39
-0.29790273 0.30320665 0.97990495 7.3756504e-39
-0.29259893 0.30320677 0.97990537 7.3756504e-39
-0.28729516 0.30320689 0.97990578 7.3756504e-39
-0.28199136 0.30320701 0.97990614 7.3756504e-39
-0.2775715 0.3032071 0.97990644 7.3756504e-39
-0.27315167 0.30320719 0.97990674 7.3756504e-39
-0.26784787 0.30320731 0.97990721 7.3756504e-39
-0.26254404 0.30320743 0.97990751 7.3756504e-39
-0.25724021 0.30320755 0.97990793 7.3756504e-39
-0.25193641 0.30320767 0.97990829 7.3756504e-39
-0.24751654 0.30320776 0.97990859 7.3756504e-39
-0.24309666 0.30320784 0.97990888 7.3756504e-39
-0.23779285 0.30320799 0.97990924 7.3756504e-39
-0.232489 0.30320808 0.97990966 7.3756504e-39
-0.22718515 0.3032082 0.97991008 7.3756504e-39
-0.22188132 0.30320832 0.97991037 7.3756504e-39
-0.21746144 0.30320844 0.97991079 7.3756504e-39
-0.21304154 0.3032085 0.97991103 7.3756504e-39
-0.20773768 0.30320862 0.97991139 7.3756504e-39
-0.20243382 0.30320877 0.9799118 7.3756504e-39
-0.19712996 0.30320886 0.97991222 7.3756504e-39
-0.19182609 0.30320898 0.97991252 7.3756504e-39
-0.18740618 0.30320907 0.97991282 7.3756504e-39
-0.1829863 0.30320922 0.97991323 7.3756504e-39
-0.17768244 0.3032093 0.97991353 7.3756504e-39
-0.17237853 0.30320939 0.97991389 7.3756504e-39
-0.16707464 0.30320954 0.97991437 7.3756504e-39
-0.16177075 0.30320966 0.97991472 7.3756504e-39
-0.15735084 0.30320975 0.97991502 7.3756504e-39
-0.1529309 0.30320981 0.97991532 7.3756504e-39
-0.14762701 0.30320999 0.9799158 7.3756504e-39
-0.14232311 0.30321008 0.9799161 7.3756504e-39
-0.13701917 0.30321023 0.97991639 7.3756504e-39
-0.13259925 0.30321029 0.97991675 7.3756504e-39
-0.12817931 0.30321038 0.97991711 7.3756504e-39
-0.12287539 0.30321053 0.97991747 7.3756504e-39
-0.11757147 0.30321062 0.97991782 7.3756504e-39
-0.11226753 0.30321077 0.97991824 7.3756504e-39
-0.1069636 0.30321085 0.97991866 7.3756504e-39
-0.10254364 0.30321097 0.9799189 7.3756504e-39
-0.098123699 0.30321106 0.97991925 7.3756504e-39
-0.092819743 0.30321118 0.97991961 7.3756504e-39
-0.087515794 0.3032113 0.97991997 7.3756504e-39
-0.082211845 0.30321142 0.97992039 7.3756504e-39
-0.076907881 0.30321154 0.9799208 7.3756504e-39
-0.072487906 0.30321163 0.97992104 7.3756504e-39
-0.068067938 0.30321172 0.97992134 7.3756504e-39
-0.062763967 0.30321184 0.97992182 7.3756504e-39
-0.057459991 0.30321196 0.97992212 7.3756504e-39
-0.052156013 0.30321208 0.97992247 7.3756504e-39
-0.046852026 0.30321217 0.97992283 7.3756504e-39
-0.04243204 0.30321229 0.97992325 7.3756504e-39
-0.038012046 0.30321237 0.97992355 7.3756504e-39
-0.032708053 0.30321249 0.9799239 7.3756504e-39
-0.027404055 0.30321261 0.97992426 7.3756504e-39
-0.022100054 0.30321273 0.97992468 7.3756504e-39
-0.016796047 0.30321285 0.97992498 7.3756504e-39
-0.012376038 0.30321294 0.97992527 7.3756504e-39
-0.0079560271 0.30321303 0.97992569 7.3756504e-39
-0.0026520099 0.30321315 0.97992605 7.3756504e-39
0.0026520116 0.30321327 0.97992641 7.3756504e-39
0.0079560364 0.30321339 0.97992682 7.3756504e-39
0.012376061 0.30321348 0.97992712 7.3756504e-39
0.016796088 0.30321357 0.97992736 7.3756504e-39
0.022100123 0.30321369 0.97992778 7.3756504e-39
0.027404165 0.30321383 0.9799282 7.3756504e-39
0.032708209 0.30321392 0.97992855 7.3756504e-39
0.038012255 0.30321404 0.97992891 7.3756504e-39
0.042432301 0.30321416 0.97992927 7.3756504e-39
0.04685235 0.30321428 0.97992963 7.3756504e-39
0.052156404 0.30321434 0.97992992 7.3756504e-39
0.057460468 0.30321446 0.97993022 7.3756504e-39
0.06276454 0.30321464 0.9799307 7.3756504e-39
0.068068609 0.3032147 0.97993106 7.3756504e-39
0.072488666 0.30321479 0.97993135 7.3756504e-39
0.076908737 0.30321491 0.97993165 7.3756504e-39
0.082212828 0.30321506 0.97993213 7.3756504e-39
0.087516904 0.30321515 0.97993249 7.3756504e-39
0.092821002 0.30321524 0.97993279 7.3756504e-39
0.0981251 0.30321538 0.97993326 7.3756504e-39
0.10254518 0.3032155 0.97993356 7.3756504e-39
0.10696527 0.30321556 0.97993392 7.3756504e-39
0.11226936 0.30321568 0.97993422 7.3756504e-39
0.11757348 0.30321583 0.97993463 7.3756504e-39
0.12287759 0.30321589 0.97993499 7.3756504e-39
0.12818171 0.30321601 0.97993535 7.3756504e-39
0.13260183 0.30321616 0.97993571 7.3756504e-39
0.13702191 0.30321625 0.97993594 7.3756504e-39
0.14232604 0.30321634 0.97993636 7.3756504e-39
0.14763017 0.30321646 0.97993678 7.3756504e-39
0.15293431 0.30321661 0.97993714 7.3756504e-39
0.15735443 0.3032167 0.97993743 7.3756504e-39
0.16177455 0.30321679 0.97993773 7.3756504e-39
0.16707869 0.3032169 0.97993821 7.3756504e-39
0.17238285 0.30321702 0.97993851 7.3756504e-39
0.177687 0.30321714 0.97993881 7.3756504e-39
0.18299116 0.30321726 0.97993928 7.3756504e-39
0.18741132 0.30321735 0.97993964 7.3756504e-39
0.19183142 0.30321744 0.97993988 7.3756504e-39
0.19713561 0.30321756 0.97994024 7.3756504e-39
0.2024398 0.30321768 0.97994071 7.3756504e-39
0.20774396 0.3032178 0.97994107 7.3756504e-39
0.21304816 0.30321789 0.97994137 7.3756504e-39
0.21746832 0.30321801 0.97994173 7.3756504e-39
0.22188848 0.30321813 0.97994208 7.3756504e-39
0.22719269 0.30321825 0.9799425 7.3756504e-39
0.23249686 0.30321833 0.97994274 7.3756504e-39
0.23780107 0.30321848 0.97994322 7.3756504e-39
0.24310528 0.3032186 0.97994357 7.3756504e-39
0.24752545 0.30321866 0.97994387 7.3756504e-39
0.25194561 0.30321875 0.97994423 7.3756504e-39
0.25724986 0.30321893 0.97994453 7.3756504e-39
0.26255405 0.30321902 0.97994494 7.3756504e-39
0.2678583 0.30321911 0.97994536 7.3756504e-39
0.27316254 0.30321926 0.97994572 7.3756504e-39
0.27758271 0.30321932 0.97994602 7.3756504e-39
0.28200293 0.30321944 0.97994632 7.3756504e-39
0.28730714 0.30321956 0.97994667 7.3756504e-39
0.29261139 0.30321968 0.97994709 7.3756504e-39
0.29791561 0.3032198 0.97994739 7.3756504e-39
0.30321988 0.30321991 0.97994781 7.3756504e-39
0.30764014 0.30322003 0.97994822 7.3756504e-39
0.31206033 0.30322009 0.97994846 7.3756504e-39
0.3173646 0.30322024 0.97994882 7.3756504e-39
0.32266888 0.30322033 0.97994924 7.3756504e-39
0.32797316 0.30322048 0.97994965 7.3756504e-39
0.33239335 0.30322054 0.97994989 7.3756504e-39
0.3368136 0.30322063 0.97995019 7.3756504e-39
0.34211791 0.30322078 0.97995061 7.3756504e-39
0.34742221 0.30322087 0.97995108 7.3756504e-39
0.35272646 0.30322099 0.97995132 7.3756504e-39
0.35803077 0.30322111 0.97995168 7.3756504e-39
0.36245102 0.30322123 0.9799521 7.3756504e-39
0.36687127 0.30322132 0.97995239 7.3756504e-39
0.37217557 0.30322143 0.97995275 7.3756504e-39
0.37747988 0.30322155 0.97995311 7.3756504e-39
0.38278422 0.30322167 0.97995353 7.3756504e-39
0.38808849 0.30322179 0.97995394 7.3756504e-39
0.39250875 0.30322188 0.97995412 7.3756504e-39
0.39692906 0.30322197 0.97995454 7.3756504e-39
0.40223339 0.30322209 0.9799549 7.3756504e-39
0.4075377 0.30322218 0.97995526 7.3756504e-39
0.41284204 0.30322233 0.97995567 7.3756504e-39
0.4181464 0.30322245 0.97995597 7.3756504e-39
0.42256668 0.30322254 0.97995633 7.3756504e-39
0.42698696 0.30322263 0.97995663 7.3756504e-39
0.43229136 0.30322278 0.9799571 7.3756504e-39
0.4375957 0.30322286 0.9799574 7.3756504e-39
0.44290003 0.30322298 0.97995776 7.3756504e-39
0.44820443 0.3032231 0.97995824 7.3756504e-39
0.45262474 0.30322319 0.97995853 7.3756504e-39
0.45704499 0.30322328 0.97995877 7.3756504e-39
0.46234941 0.3032234 0.97995919 7.3756504e-39
0.46765384 0.30322355 0.97995967 7.3756504e-39
0.47295818 0.30322364 0.97995991 7.3756504e-39
0.47737849 0.30322373 0.9799602 7.3756504e-39
0.4817988 0.30322385 0.97996062 7.3756504e-39
0.48710322 0.30322397 0.97996098 7.3756504e-39
0.49240765 0.30322409 0.97996134 7.3756504e-39
0.49771199 0.30322418 0.97996169 7.3756504e-39
0.50301641 0.30322433 0.97996211 7.3756504e-39
0.50743675 0.30322441 0.97996241 7.3756504e-39
0.51185709 0.30322447 0.97996265 7.3756504e-39
0.51716155 0.30322462 0.97996306 7.3756504e-39
0.52246594 0.30322477 0.97996348 7.3756504e-39
0.5277704 0.30322489 0.97996384 7.3756504e-39
0.5330748 0.30322495 0.97996426 7.3756504e-39
0.53749514 0.3032251 0.97996455 7.3756504e-39
0.54191554 0.30322519 0.97996491 7.3756504e-39
0.54721999 0.30322528 0.97996521 7.3756504e-39
0.55252445 0.3032254 0.97996563 7.3756504e-39
0.55782884 0.30322552 0.97996598 7.3756504e-39
0.5631333 0.30322564 0.97996634 7.3756504e-39
-0.56736708 0.30324793 0.98578638 7.3756504e-39
-0.56292081 0.30324802 0.98578668 7.3756504e-39
-0.5575853 0.30324814 0.98578709 7.3756504e-39
-0.55224973 0.30324826 0.98578745 7.3756504e-39
-0.54691416 0.30324838 0.98578781 7.3756504e-39
-0.54246789 0.30324847 0.98578811 7.3756504e-39
-0.53802162 0.30324855 0.98578852 7.3756504e-39
-0.53268605 0.30324867 0.98578888 7.3756504e-39
-0.5273506 0.30324879 0.98578924 7.3756504e-39
-0.52201498 0.30324888 0.9857896 7.3756504e-39
-0.51756871 0.303249 0.98578995 7.3756504e-39
-0.51312238 0.30324909 0.98579025 7.3756504e-39
-0.50778681 0.30324921 0.98579055 7.3756504e-39
-0.50245124 0.30324936 0.98579103 7.3756504e-39
-0.4971157 0.30324945 0.98579144 7.3756504e-39
-0.49178007 0.30324957 0.98579174 7.3756504e-39
-0.48733377 0.30324966 0.9857921 7.3756504e-39
-0.48288751 0.30324981 0.98579246 7.3756504e-39
-0.47755185 0.30324993 0.98579282 7.3756504e-39
-0.47221628 0.30324998 0.98579317 7.3756504e-39
-0.46688071 0.30325016 0.98579359 7.3756504e-39
-0.46243435 0.30325022 0.98579389 7.3756504e-39
-0.45798802 0.30325031 0.98579425 7.3756504e-39
-0.45265242 0.30325043 0.98579454 7.3756504e-39
-0.4473168 0.30325058 0.98579502 7.3756504e-39
-0.4419812 0.3032507 0.98579532 7.3756504e-39
-0.43753481 0.30325076 0.98579562 7.3756504e-39
-0.43308851 0.30325088 0.98579597 7.3756504e-39
-0.42775288 0.303251 0.98579639 7.3756504e-39
-0.42241725 0.30325112 0.98579675 7.3756504e-39
-0.41708159 0.30325124 0.98579717 7.3756504e-39
-0.41263527 0.30325133 0.98579752 7.3756504e-39
-0.40818885 0.30325142 0.9857977 7.3756504e-39
-0.40285316 0.3032515 0.98579812 7.3756504e-39
-0.39751759 0.30325165 0.98579854 7.3756504e-39
-0.3921819 0.30325177 0.98579901 7.3756504e-39
-0.38684621 0.30325189 0.98579931 7.3756504e-39
-0.38239986 0.30325198 0.98579967 7.3756504e-39
-0.3779535 0.3032521 0.98579997 7.3756504e-39
-0.37261781 0.30325219 0.98580033 7.3756504e-39
-0.36728212 0.30325231 0.98580068 7.3756504e-39
-0.36194649 0.30325246 0.98580116 7.3756504e-39
-0.35750008 0.30325255 0.98580146 7.3756504e-39
-0.35305366 0.30325261 0.9858017 7.3756504e-39
-0.34771797 0.30325273 0.98580211 7.3756504e-39
-0.34238228 0.30325291 0.98580247 7.3756504e-39
-0.33704659 0.303253 0.98580289 7.3756504e-39
-0.33260018 0.30325308 0.98580319 7.3756504e-39
-0.32815376 0.3032532 0.98580354 7.3756504e-39
-0.32281804 0.30325329 0.9858039 7.3756504e-39
-0.31748232 0.30325341 0.98580426 7.3756504e-39
-0.3121466 0.30325353 0.98580462 7.3756504e-39
-0.30681089 0.30325368 0.98580509 7.3756504e-39
-0.30236447 0.30325377 0.98580539 7.3756504e-39
-0.29791802 0.30325386 0.98580569 7.3756504e-39
-0.29258224 0.30325398 0.98580605 7.3756504e-39
-0.28724656 0.3032541 0.98580647 7.3756504e-39
-0.28191078 0.30325422 0.98580676 7.3756504e-39
-0.27746433 0.30325431 0.98580712 7.3756504e-39
-0.27301788 0.30325443 0.9858076 7.3756504e-39
-0.26768216 0.30325451 0.98580784 7.3756504e-39
-0.26234639 0.30325463 0.98580819 7.3756504e-39
-0.25701064 0.30325475 0.98580861 7.3756504e-39
-0.25256416 0.30325484 0.98580897 7.3756504e-39
-0.24811769 0.30325496 0.98580927 7.3756504e-39
-0.24278192 0.30325505 0.98580962 7.3756504e-39
-0.23744614 0.3032552 0.98581004 7.3756504e-39
-0.23211037 0.30325529 0.98581046 7.3756504e-39
-0.22766387 0.30325538 0.9858107 7.3756504e-39
-0.22321738 0.3032555 0.98581105 7.3756504e-39
-0.21788161 0.30325565 0.98581147 7.3756504e-39
-0.21254581 0.30325571 0.98581177 7.3756504e-39
-0.20721 0.30325583 0.98581213 7.3756504e-39
-0.20187421 0.30325601 0.9858126 7.3756504e-39
-0.1974277 0.30325609 0.9858129 7.3756504e-39
-0.1929812 0.30325618 0.9858132 7.3756504e-39
-0.18764538 0.3032563 0.98581362 7.3756504e-39
-0.18230957 0.30325642 0.98581403 7.3756504e-39
-0.17697375 0.30325651 0.98581433 7.3756504e-39
-0.17252722 0.3032566 0.98581463 7.3756504e-39
-0.1680807 0.30325672 0.98581505 7.3756504e-39
-0.16274488 0.30325684 0.98581535 7.3756504e-39
-0.15740903 0.30325696 0.98581576 7.3756504e-39
-0.15207319 0.30325708 0.98581606 7.3756504e-39
-0.14762667 0.30325717 0.98581648 7.3756504e-39
-0.14318012 0.30325726 0.98581678 7.3756504e-39
-0.13784426 0.30325738 0.98581713 7.3756504e-39
-0.13250841 0.3032575 0.98581761 7.3756504e-39
-0.12717254 0.30325761 0.98581791 7.3756504e-39
-0.12183668 0.30325773 0.98581821 7.3756504e-39
-0.11739013 0.30325782 0.98581856 7.3756504e-39
-0.11294358 0.30325794 0.98581904 7.3756504e-39
-0.10760769 0.30325806 0.98581934 7.3756504e-39
-0.10227182 0.30325815 0.98581964 7.3756504e-39
-0.096935935 0.3032583 0.98582011 7.3756504e-39
-0.092489362 0.30325836 0.98582041 7.3756504e-39
-0.088042773 0.30325851 0.98582071 7.3756504e-39
-0.082706891 0.30325857 0.98582107 7.3756504e-39
-0.077370994 0.30325875 0.98582155 7.3756504e-39
-0.072035089 0.30325887 0.9858219 7.3756504e-39
-0.067588501 0.30325896 0.9858222 7.3756504e-39
-0.063141912 0.30325904 0.9858225 7.3756504e-39
-0.057805996 0.30325916 0.98582292 7.3756504e-39
-0.052470077 0.30325925 0.98582333 7.3756504e-39
-0.047134157 0.3032594 0.98582363 7.3756504e-39
-0.041798234 0.30325952 0.98582411 7.3756504e-39
-0.037351623 0.30325961 0.98582435 7.3756504e-39
-0.032905009 0.3032597 0.98582464 7.3756504e-39
-0.027569076 0.30325982 0.98582506 7.3756504e-39
-0.022233134 0.30325994 0.98582548 7.3756504e-39
-0.016897187 0.30326006 0.98582584 7.3756504e-39
-0.012450563 0.30326015 0.98582613 7.3756504e-39
-0.0080039361 0.30326024 0.98582649 7.3756504e-39
-0.0026679796 0.30326036 0.98582679 7.3756504e-39
0.002667981 0.30326048 0.98582721 7.3756504e-39
0.0080039464 0.30326059 0.98582762 7.3756504e-39
0.012450586 0.30326068 0.98582798 7.3756504e-39
0.016897229 0.3032608 0.98582822 7.3756504e-39
0.022233203 0.30326089 0.98582858 7.3756504e-39
0.027569184 0.30326104 0.98582906 7.3756504e-39
0.032905169 0.30326116 0.98582941 7.3756504e-39
0.037351824 0.30326122 0.98582971 7.3756504e-39
0.041798484 0.30326137 0.98583007 7.3756504e-39
0.047134478 0.30326146 0.98583049 7.3756504e-39
0.052470475 0.30326161 0.98583078 7.3756504e-39
0.057806477 0.30326167 0.98583108 7.3756504e-39
0.063142493 0.30326185 0.98583156 7.3756504e-39
0.067589164 0.30326194 0.98583192 7.3756504e-39
0.072035842 0.30326203 0.98583221 7.3756504e-39
0.077371866 0.30326211 0.98583251 7.3756504e-39
0.082707889 0.30326226 0.98583299 7.3756504e-39
0.088043906 0.30326235 0.98583335 7.3756504e-39
0.092490599 0.30326247 0.98583364 7.3756504e-39
0.096937299 0.30326256 0.98583406 7.3756504e-39
0.10227334 0.30326268 0.98583442 7.3756504e-39
0.10760937 0.30326277 0.98583478 7.3756504e-39
0.11294542 0.30326292 0.98583508 7.3756504e-39
0.11739214 0.30326301 0.98583549 7.3756504e-39
0.12183885 0.3032631 0.98583579 7.3756504e-39
0.1271749 0.30326322 0.98583621 7.3756504e-39
0.13251098 0.30326334 0.98583657 7.3756504e-39
0.13784702 0.30326346 0.98583692 7.3756504e-39
0.1431831 0.30326357 0.98583728 7.3756504e-39
0.14762981 0.30326366 0.98583758 7.3756504e-39
0.15207656 0.30326378 0.985838 7.3756504e-39
0.15741263 0.3032639 0.98583835 7.3756504e-39
0.16274871 0.30326399 0.98583871 7.3756504e-39
0.1680848 0.30326411 0.98583907 7.3756504e-39
0.17253156 0.30326423 0.98583943 7.3756504e-39
0.1769783 0.30326435 0.98583966 7.3756504e-39
0.1823144 0.30326447 0.98584008 7.3756504e-39
0.18765052 0.30326459 0.98584056 7.3756504e-39
0.19298661 0.30326471 0.98584086 7.3756504e-39
0.19743335 0.30326474 0.98584116 7.3756504e-39
0.20188014 0.30326489 0.98584151 7.3756504e-39
0.20721626 0.30326501 0.98584193 7.3756504e-39
0.21255238 0.30326512 0.98584229 7.3756504e-39
0.21788852 0.30326524 0.9858427 7.3756504e-39
0.22233528 0.30326533 0.985843 7.3756504e-39
0.22678207 0.30326542 0.98584336 7.3756504e-39
0.23211819 0.30326554 0.98584366 7.3756504e-39
0.23745435 0.30326566 0.98584414 7.3756504e-39
0.24279051 0.30326578 0.98584443 7.3756504e-39
0.24812663 0.3032659 0.98584485 7.3756504e-39
0.25257343 0.30326599 0.98584509 7.3756504e-39
0.25702024 0.30326614 0.98584551 7.3756504e-39
0.2623564 0.3032662 0.98584586 7.3756504e-39
0.26769257 0.30326632 0.98584622 7.3756504e-39
0.27302873 0.30326644 0.9858467 7.3756504e-39
0.27747554 0.30326653 0.98584694 7.3756504e-39
0.28192234 0.30326664 0.98584723 7.3756504e-39
0.28725854 0.30326676 0.98584765 7.3756504e-39
0.29259473 0.30326688 0.98584813 7.3756504e-39
0.29793093 0.303267 0.98584843 7.3756504e-39
0.30237776 0.30326709 0.98584872 7.3756504e-39
0.30682456 0.30326715 0.98584908 7.3756504e-39
0.31216079 0.30326733 0.98584944 7.3756504e-39
0.31749699 0.30326745 0.9858498 7.3756504e-39
0.32283318 0.30326757 0.98585016 7.3756504e-39
0.32816944 0.30326769 0.98585063 7.3756504e-39
0.33261627 0.30326778 0.98585093 7.3756504e-39
0.33706307 0.30326784 0.98585111 7.3756504e-39
0.34239933 0.30326799 0.98585159 7.3756504e-39
0.34773555 0.3032681 0.985852 7.3756504e-39
0.35307178 0.30326822 0.98585242 7.3756504e-39
0.35751864 0.30326831 0.98585266 7.3756504e-39
0.36196551 0.3032684 0.98585302 7.3756504e-39
0.36730179 0.30326852 0.98585337 7.3756504e-39
0.37263799 0.30326864 0.98585373 7.3756504e-39
0.37797424 0.30326876 0.98585415 7.3756504e-39
0.38242114 0.30326885 0.98585451 7.3756504e-39
0.38686803 0.30326894 0.9858548 7.3756504e-39
0.39220428 0.30326906 0.9858551 7.3756504e-39
0.39754054 0.30326918 0.98585558 7.3756504e-39
0.40287682 0.3032693 0.98585588 7.3756504e-39
0.40821305 0.30326942 0.98585629 7.3756504e-39
0.41266 0.30326951 0.98585659 7.3756504e-39
0.41710696 0.30326965 0.98585701 7.3756504e-39
0.42244315 0.30326974 0.98585731 7.3756504e-39
0.42777944 0.30326983 0.98585767 7.3756504e-39
0.43311575 0.30326998 0.98585814 7.3756504e-39
0.4375627 0.3032701 0.98585844 7.3756504e-39
0.4420096 0.30327019 0.98585874 7.3756504e-39
0.44734588 0.30327028 0.9858591 7.3756504e-39
0.45268223 0.30327043 0.98585957 7.3756504e-39
0.45801851 0.30327055 0.98585987 7.3756504e-39
0.46246547 0.30327061 0.98586017 7.3756504e-39
0.46691239 0.30327073 0.98586053 7.3756504e-39
0.47224876 0.30327085 0.985861 7.3756504e-39
0.47758505 0.30327094 0.9858613 7.3756504e-39
0.48292136 0.30327109 0.9858616 7.3756504e-39
0.48736835 0.30327117 0.98586202 7.3756504e-39
0.4918153 0.30327126 0.98586231 7.3756504e-39
0.49715161 0.30327138 0.98586267 7.3756504e-39
0.50248796 0.3032715 0.98586315 7.3756504e-39
0.5078243 0.30327162 0.98586345 7.3756504e-39
0.51316065 0.30327174 0.98586386 7.3756504e-39
0.51760757 0.30327183 0.9858641 7.3756504e-39
0.52205467 0.30327198 0.98586446 7.3756504e-39
0.52739102 0.30327207 0.98586488 7.3756504e-39
0.5327273 0.30327216 0.98586529 7.3756504e-39
0.53806376 0.30327228 0.98586559 7.3756504e-39
0.54251075 0.30327237 0.98586595 7.3756504e-39
0.54695767 0.30327249 0.98586625 7.3756504e-39
0.55229408 0.3032726 0.98586661 7.3756504e-39
0.55763054 0.30327275 0.98586708 7.3756504e-39
0.56296688 0.30327284 0.98586744 7.3756504e-39
0.56741381 0.3032729 0.98586768 7.3756504e-39
-0.57169878 0.30329561 0.99175817 7.3756504e-39
-0.56812024 0.3032957 0.99175841 7.3756504e-39
-0.56275243 0.30329579 0.99175882 7.3756504e-39
-0.55738455 0.30329594 0.99175924 7.3756504e-39
-0.55201668 0.30329603 0.9917596 7.3756504e-39
-0.54754341 0.30329615 0.9917599 7.3756504e-39
-0.54307026 0.30329624 0.99176025 7.3756504e-39
-0.53770238 0.30329636 0.99176067 7.3756504e-39
-0.53233451 0.30329648 0.99176097 7.3756504e-39
-0.52696663 0.3032966 0.99176139 7.3756504e-39
-0.52249342 0.30329669 0.99176174 7.3756504e-39
-0.51802015 0.30329677 0.99176198 7.3756504e-39
-0.51265228 0.30329689 0.9917624 7.3756504e-39
-0.5072844 0.30329701 0.99176282 7.3756504e-39
-0.50191653 0.30329716 0.99176329 7.3756504e-39
-0.49744326 0.30329722 0.99176353 7.3756504e-39
-0.49296999 0.30329731 0.99176383 7.3756504e-39
-0.48760214 0.30329749 0.99176431 7.3756504e-39
-0.48223421 0.30329761 0.99176461 7.3756504e-39
-0.47686625 0.30329767 0.99176496 7.3756504e-39
-0.47239304 0.30329779 0.99176532 7.3756504e-39
-0.4679198 0.30329791 0.99176568 7.3756504e-39
-0.46255183 0.30329803 0.99176604 7.3756504e-39
-0.45718393 0.30329812 0.99176639 7.3756504e-39
-0.45181599 0.30329826 0.99176687 7.3756504e-39
-0.44734269 0.30329835 0.99176717 7.3756504e-39
-0.44286942 0.30329844 0.99176747 7.3756504e-39
-0.43750143 0.30329856 0.99176782 7.3756504e-39
-0.43213353 0.30329868 0.99176818 7.3756504e-39
-0.42766023 0.30329877 0.99176854 7.3756504e-39
-0.4231869 0.30329886 0.99176884 7.3756504e-39
-0.41781899 0.30329898 0.99176931 7.3756504e-39
-0.41245103 0.3032991 0.99176961 7.3756504e-39
-0.40708303 0.30329922 0.99177003 7.3756504e-39
-0.40260971 0.30329931 0.99177033 7.3756504e-39
-0.39813647 0.30329946 0.99177074 7.3756504e-39
-0.39276847 0.30329955 0.99177104 7.3756504e-39
-0.38740048 0.30329967 0.9917714 7.3756504e-39
-0.38203248 0.30329978 0.99177188 7.3756504e-39
-0.37755916 0.3032999 0.99177217 7.3756504e-39
-0.37308583 0.30329999 0.99177247 7.3756504e-39
-0.36771783 0.30330011 0.99177289 7.3756504e-39
-0.36234984 0.30330023 0.99177331 7.3756504e-39
-0.35698184 0.30330035 0.99177366 7.3756504e-39
-0.35250846 0.30330044 0.99177396 7.3756504e-39
-0.34803519 0.30330053 0.99177432 7.3756504e-39
-0.3426671 0.30330065 0.99177474 7.3756504e-39
-0.33729911 0.30330077 0.9917751 7.3756504e-39
-0.33193105 0.30330089 0.99177545 7.3756504e-39
-0.32745773 0.30330098 0.99177581 7.3756504e-39
-0.32298434 0.3033011 0.99177617 7.3756504e-39
-0.31761628 0.30330122 0.99177647 7.3756504e-39
-0.31224826 0.30330133 0.99177694 7.3756504e-39
-0.30688024 0.30330145 0.99177724 7.3756504e-39
-0.30240685 0.30330154 0.9917776 7.3756504e-39
-0.29793346 0.30330166 0.9917779 7.3756504e-39
-0.29256544 0.30330178 0.99177837 7.3756504e-39
-0.28719735 0.30330184 0.99177867 7.3756504e-39
-0.28182927 0.30330196 0.99177903 7.3756504e-39
-0.27735591 0.30330211 0.99177939 7.3756504e-39
-0.27288249 0.3033022 0.99177974 7.3756504e-39
-0.26751444 0.30330232 0.9917801 7.3756504e-39
-0.26214632 0.30330244 0.99178046 7.3756504e-39
-0.25767297 0.30330253 0.99178088 7.3756504e-39
-0.25319955 0.30330265 0.99178118 7.3756504e-39
-0.24783145 0.30330274 0.99178153 7.3756504e-39
-0.24246335 0.30330285 0.99178195 7.3756504e-39
-0.23709528 0.303303 0.99178237 7.3756504e-39
-0.23262182 0.30330306 0.99178261 7.3756504e-39
-0.2281484 0.30330315 0.9917829 7.3756504e-39
-0.2227803 0.3033033 0.99178332 7.3756504e-39
-0.21741219 0.30330345 0.9917838 7.3756504e-39
-0.21204406 0.30330351 0.9917841 7.3756504e-39
-0.20757061 0.3033036 0.99178439 7.3756504e-39
-0.20309721 0.30330375 0.99178481 7.3756504e-39
-0.19772907 0.30330387 0.99178523 7.3756504e-39
-0.19236092 0.30330399 0.99178553 7.3756504e-39
-0.18699278 0.30330411 0.99178594 7.3756504e-39
-0.18251933 0.3033042 0.99178624 7.3756504e-39
-0.17804587 0.30330428 0.99178654 7.3756504e-39
-0.17267771 0.3033044 0.9917869 7.3756504e-39
-0.16730958 0.30330452 0.99178737 7.3756504e-39
-0.16194141 0.30330464 0.99178773 7.3756504e-39
-0.15746795 0.30330473 0.99178803 7.3756504e-39
-0.15299447 0.30330482 0.99178839 7.3756504e-39
-0.14762631 0.303305 0.9917888 7.3756504e-39
-0.14225814 0.30330506 0.99178916 7.3756504e-39
-0.13688993 0.30330518 0.99178952 7.3756504e-39
-0.13241647 0.3033053 0.99178988 7.3756504e-39
-0.12794298 0.30330539 0.99179012 7.3756504e-39
-0.1225748 0.30330548 0.99179053 7.3756504e-39
-0.1172066 0.3033056 0.99179095 7.3756504e-39
-0.11183841 0.30330577 0.99179143 7.3756504e-39
-0.1073649 0.30330586 0.99179167 7.3756504e-39
-0.10289139 0.30330595 0.99179196 7.3756504e-39
-0.09752319 0.30330607 0.99179238 7.3756504e-39
-0.09215498 0.30330619 0.99179286 7.3756504e-39
-0.087681457 0.30330628 0.99179304 7.3756504e-39
-0.083207943 0.30330637 0.99179339 7.3756504e-39
-0.077839725 0.30330649 0.99179381 7.3756504e-39
-0.072471492 0.30330661 0.99179417 7.3756504e-39
-0.067103259 0.30330673 0.99179453 7.3756504e-39
-0.06262973 0.30330685 0.99179494 7.3756504e-39
-0.058156196 0.30330694 0.99179524 7.3756504e-39
-0.052787948 0.30330706 0.9917956 7.3756504e-39
-0.047419708 0.30330715 0.99179602 7.3756504e-39
-0.042051453 0.30330729 0.99179643 7.3756504e-39
-0.037577905 0.30330738 0.99179673 7.3756504e-39
-0.033104356 0.30330744 0.99179697 7.3756504e-39
-0.027736092 0.30330762 0.99179745 7.3756504e-39
-0.022367826 0.30330774 0.99179775 7.3756504e-39
-0.016999554 0.3033078 0.99179816 7.3756504e-39
-0.012525991 0.30330792 0.99179846 7.3756504e-39
-0.0080524264 0.30330804 0.99179888 7.3756504e-39
-0.0026841427 0.30330816 0.99179918 7.3756504e-39
0.0026841441 0.30330828 0.99179959 7.3756504e-39
0.0080524357 0.3033084 0.99180001 7.3756504e-39
0.012526014 0.30330849 0.99180031 7.3756504e-39
0.016999597 0.30330858 0.99180061 7.3756504e-39
0.022367897 0.3033087 0.99180096 7.3756504e-39
0.027736207 0.30330881 0.99180144 7.3756504e-39
0.033104513 0.30330893 0.9918018 7.3756504e-39
0.037578113 0.30330902 0.9918021 7.3756504e-39
0.042051706 0.30330911 0.99180245 7.3756504e-39
0.047420036 0.30330929 0.99180287 7.3756504e-39
0.052788358 0.30330935 0.99180323 7.3756504e-39
0.058156688 0.30330947 0.99180359 7.3756504e-39
0.062630296 0.30330962 0.99180394 7.3756504e-39
0.067103915 0.30330968 0.9918043 7.3756504e-39
0.072472252 0.3033098 0.9918046 7.3756504e-39
0.077840596 0.30330992 0.99180502 7.3756504e-39
0.083208956 0.30331007 0.99180537 7.3756504e-39
0.087682582 0.30331016 0.99180573 7.3756504e-39
0.092156209 0.30331025 0.99180603 7.3756504e-39
0.097524576 0.30331036 0.99180651 7.3756504e-39
0.10289294 0.30331051 0.99180681 7.3756504e-39
0.10736658 0.30331057 0.99180716 7.3756504e-39
0.11184022 0.30331066 0.99180746 7.3756504e-39
0.1172086 0.30331078 0.99180788 7.3756504e-39
0.12257697 0.3033109 0.99180824 7.3756504e-39
0.12794536 0.30331102 0.99180859 7.3756504e-39
0.13241902 0.30331111 0.99180895 7.3756504e-39
0.13689268 0.30331123 0.99180931 7.3756504e-39
0.14226107 0.30331135 0.99180967 7.3756504e-39
0.14762945 0.30331147 0.99181002 7.3756504e-39
0.1529979 0.30331159 0.9918105 7.3756504e-39
0.15747157 0.30331171 0.9918108 7.3756504e-39
0.16194522 0.30331179 0.99181104 7.3756504e-39
0.16731364 0.30331191 0.99181145 7.3756504e-39
0.17268206 0.30331203 0.99181193 7.3756504e-39
0.17805047 0.30331215 0.99181223 7.3756504e-39
0.18252417 0.30331224 0.99181253 7.3756504e-39
0.18699788 0.30331233 0.99181288 7.3756504e-39
0.1923663 0.30331245 0.99181336 7.3756504e-39
0.19773476 0.30331257 0.99181366 7.3756504e-39
0.20310318 0.30331269 0.99181414 7.3756504e-39
0.2075769 0.30331281 0.99181443 7.3756504e-39
0.2120506 0.3033129 0.99181467 7.3756504e-39
0.21741904 0.30331299 0.99181503 7.3756504e-39
0.22278754 0.30331314 0.99181551 7.3756504e-39
0.22815599 0.30331326 0.99181587 7.3756504e-39
0.2326297 0.30331331 0.99181616 7.3756504e-39
0.23710342 0.30331346 0.99181652 7.3756504e-39
0.24247192 0.30331358 0.99181694 7.3756504e-39
0.24784039 0.3033137 0.9918173 7.3756504e-39
0.25320888 0.30331379 0.99181765 7.3756504e-39
0.25768262 0.30331391 0.99181807 7.3756504e-39
0.26215637 0.303314 0.99181825 7.3756504e-39
0.26752484 0.30331412 0.99181867 7.3756504e-39
0.27289334 0.30331424 0.99181908 7.3756504e-39
0.27736712 0.30331433 0.99181944 7.3756504e-39
0.28184083 0.30331445 0.99181968 7.3756504e-39
0.28720936 0.30331454 0.9918201 7.3756504e-39
0.29257789 0.30331469 0.99182051 7.3756504e-39
0.29794639 0.30331481 0.99182099 7.3756504e-39
0.30242014 0.30331486 0.99182123 7.3756504e-39
0.30689391 0.30331501 0.99182153 7.3756504e-39
0.31226245 0.3033151 0.99182194 7.3756504e-39
0.31763098 0.30331519 0.9918223 7.3756504e-39
0.32299951 0.30331531 0.99182266 7.3756504e-39
0.32747328 0.30331543 0.99182302 7.3756504e-39
0.33194709 0.30331555 0.99182338 7.3756504e-39
0.33731565 0.30331567 0.99182373 7.3756504e-39
0.34268418 0.30331576 0.99182409 7.3756504e-39
0.34805277 0.30331591 0.99182457 7.3756504e-39
0.35252655 0.303316 0.99182487 7.3756504e-39
0.35700035 0.30331609 0.99182516 7.3756504e-39
0.36236891 0.30331621 0.99182558 7.3756504e-39
0.3677375 0.30331632 0.99182588 7.3756504e-39
0.37310603 0.30331644 0.9918263 7.3756504e-39
0.37757987 0.30331653 0.99182659 7.3756504e-39
0.3820537 0.30331662 0.99182701 7.3756504e-39
0.38742232 0.30331674 0.99182731 7.3756504e-39
0.39279088 0.30331686 0.99182773 7.3756504e-39
0.3981595 0.30331698 0.99182814 7.3756504e-39
0.40263331 0.30331713 0.9918285 7.3756504e-39
0.40710714 0.30331719 0.99182874 7.3756504e-39
0.41247573 0.30331728 0.9918291 7.3756504e-39
0.41784433 0.30331743 0.99182957 7.3756504e-39
0.42231822 0.30331755 0.99182987 7.3756504e-39
0.42679206 0.30331764 0.99183017 7.3756504e-39
0.43216065 0.30331776 0.99183053 7.3756504e-39
0.43752933 0.30331787 0.991831 7.3756504e-39
0.44289795 0.30331799 0.99183136 7.3756504e-39
0.44737178 0.30331808 0.99183166 7.3756504e-39
0.45184565 0.30331817 0.99183202 7.3756504e-39
0.45721433 0.30331829 0.99183244 7.3756504e-39
0.46258295 0.30331841 0.99183273 7.3756504e-39
0.46795154 0.3033185 0.99183303 7.3756504e-39
0.47242549 0.30331862 0.99183351 7.3756504e-39
0.47689939 0.30331874 0.99183387 7.3756504e-39
0.48226801 0.30331883 0.99183416 7.3756504e-39
0.48763672 0.30331898 0.99183464 7.3756504e-39
0.49300539 0.3033191 0.99183494 7.3756504e-39
0.49747926 0.30331919 0.9918353 7.3756504e-39
0.50195312 0.30331931 0.99183559 7.3756504e-39
0.50732183 0.30331942 0.99183601 7.3756504e-39
0.51269048 0.30331948 0.99183637 7.3756504e-39
0.51805919 0.30331966 0.99183673 7.3756504e-39
0.52253306 0.30331975 0.99183708 7.3756504e-39
0.52700704 0.30331984 0.99183744 7.3756504e-39
0.53237575 0.30331996 0.9918378 7.3756504e-39
0.5377444 0.30332008 0.99183816 7.3756504e-39
0.54311317 0.3033202 0.99183863 7.3756504e-39
0.5475871 0.30332029 0.99183893 7.3756504e-39
0.55206102 0.30332038 0.99183923 7.3756504e-39
0.55742973 0.30332053 0.99183965 7.3756504e-39
0.56279844 0.30332062 0.99184006 7.3756504e-39
0.56816715 0.30332074 0.99184036 7.3756504e-39
0.57174629 0.3033208 0.9918406 7.3756504e-39
-0.57518321 0.30334389 0.99780279 7.3756504e-39
-0.57248294 0.30334395 0.99780297 7.3756504e-39
-0.56798244 0.30334401 0.99780327 7.3756504e-39
-0.56258196 0.30334416 0.99780375 7.3756504e-39
-0.55718136 0.30334428 0.99780411 7.3756504e-39
-0.55268085 0.30334437 0.9978044 7.3756504e-39
-0.5481804 0.30334446 0.9978047 7.3756504e-39
-0.54277986 0.30334461 0.99780518 7.3756504e-39
-0.53737921 0.30334473 0.99780554 7.3756504e-39
-0.53197861 0.30334482 0.99780589 7.3756504e-39
-0.52747816 0.30334496 0.99780631 7.3756504e-39
-0.52297765 0.30334505 0.99780661 7.3756504e-39
-0.51757699 0.30334517 0.99780697 7.3756504e-39
-0.51217645 0.30334529 0.99780732 7.3756504e-39
-0.50767601 0.30334538 0.99780774 7.3756504e-39
-0.50317544 0.30334547 0.99780804 7.3756504e-39
-0.49777484 0.30334559 0.9978084 7.3756504e-39
-0.49237421 0.30334571 0.99780887 7.3756504e-39
-0.48697355 0.30334583 0.99780923 7.3756504e-39
-0.48247308 0.30334592 0.99780953 7.3756504e-39
-0.47797251 0.30334601 0.99780983 7.3756504e-39
-0.47257194 0.30334619 0.9978103 7.3756504e-39
-0.46717122 0.30334625 0.9978106 7.3756504e-39
-0.46267068 0.30334634 0.9978109 7.3756504e-39
-0.45817018 0.30334643 0.99781126 7.3756504e-39
-0.45276952 0.3033466 0.99781162 7.3756504e-39
-0.44736886 0.30334672 0.99781203 7.3756504e-39
-0.4419682 0.30334678 0.99781245 7.3756504e-39
-0.43746769 0.30334693 0.99781281 7.3756504e-39
-0.4329671 0.30334702 0.99781305 7.3756504e-39
-0.42756644 0.30334714 0.99781346 7.3756504e-39
-0.42216575 0.30334726 0.99781388 7.3756504e-39
-0.41766521 0.30334735 0.99781424 7.3756504e-39
-0.41316462 0.30334744 0.99781448 7.3756504e-39
-0.40776393 0.30334756 0.99781489 7.3756504e-39
-0.40236327 0.30334771 0.99781531 7.3756504e-39
-0.39696255 0.30334783 0.99781579 7.3756504e-39
-0.39246199 0.30334789 0.99781603 7.3756504e-39
-0.38796139 0.30334803 0.99781632 7.3756504e-39
-0.3825607 0.30334815 0.9978168 7.3756504e-39
-0.37715998 0.30334827 0.99781722 7.3756504e-39
-0.37265939 0.30334836 0.99781746 7.3756504e-39
-0.36815879 0.30334845 0.99781781 7.3756504e-39
-0.36275807 0.30334857 0.99781823 7.3756504e-39
-0.35735735 0.30334869 0.99781865 7.3756504e-39
-0.35195664 0.30334881 0.99781895 7.3756504e-39
-0.34745604 0.3033489 0.99781936 7.3756504e-39
-0.34295544 0.30334902 0.99781966 7.3756504e-39
-0.33755466 0.30334911 0.99782008 7.3756504e-39
-0.33215395 0.30334926 0.99782044 7.3756504e-39
-0.32765329 0.30334938 0.99782079 7.3756504e-39
-0.32315266 0.30334944 0.99782109 7.3756504e-39
-0.31775191 0.30334958 0.99782151 7.3756504e-39
-0.3123512 0.3033497 0.99782199 7.3756504e-39
-0.30695042 0.30334982 0.99782228 7.3756504e-39
-0.30244976 0.30334991 0.99782258 7.3756504e-39
-0.29794911 0.30335 0.99782294 7.3756504e-39
-0.29254839 0.30335012 0.99782342 7.3756504e-39
-0.28714755 0.30335024 0.99782372 7.3756504e-39
-0.28264689 0.30335033 0.99782401 7.3756504e-39
-0.27814627 0.30335045 0.99782437 7.3756504e-39
-0.27274546 0.30335054 0.99782473 7.3756504e-39
-0.26734468 0.30335066 0.99782509 7.3756504e-39
-0.26194385 0.30335081 0.99782544 7.3756504e-39
-0.25744319 0.3033509 0.99782586 7.3756504e-39
-0.25294253 0.30335101 0.99782616 7.3756504e-39
-0.24754171 0.30335113 0.99782652 7.3756504e-39
-0.24214089 0.30335125 0.99782699 7.3756504e-39
-0.2376402 0.30335134 0.99782729 7.3756504e-39
-0.23313951 0.30335143 0.99782759 7.3756504e-39
-0.22773869 0.30335155 0.99782795 7.3756504e-39
-0.22233789 0.30335167 0.99782842 7.3756504e-39
-0.21693702 0.30335179 0.99782878 7.3756504e-39
-0.21243632 0.30335188 0.99782908 7.3756504e-39
-0.20793562 0.30335197 0.99782944 7.3756504e-39
-0.20253479 0.30335212 0.99782985 7.3756504e-39
-0.19713394 0.30335221 0.99783021 7.3756504e-39
-0.19263321 0.3033523 0.99783051 7.3756504e-39
-0.18813252 0.30335245 0.99783087 7.3756504e-39
-0.18273167 0.30335256 0.99783128 7.3756504e-39
-0.17733079 0.30335262 0.99783164 7.3756504e-39
-0.17192991 0.30335277 0.99783206 7.3756504e-39
-0.16742919 0.30335289 0.99783242 7.3756504e-39
-0.16292846 0.30335298 0.99783272 7.3756504e-39
-0.15752757 0.3033531 0.99783307 7.3756504e-39
-0.15212668 0.30335322 0.99783349 7.3756504e-39
-0.14762595 0.30335331 0.99783385 7.3756504e-39
-0.14312521 0.3033534 0.99783415 7.3756504e-39
-0.1377243 0.30335352 0.9978345 7.3756504e-39
-0.1323234 0.30335367 0.99783498 7.3756504e-39
-0.1269225 0.30335379 0.99783534 7.3756504e-39
-0.12242174 0.30335385 0.99783564 7.3756504e-39
-0.11792097 0.303354 0.99783593 7.3756504e-39
-0.11252007 0.30335411 0.99783641 7.3756504e-39
-0.10711914 0.30335423 0.99783677 7.3756504e-39
-0.10261837 0.30335432 0.99783707 7.3756504e-39
-0.098117597 0.30335441 0.99783748 7.3756504e-39
-0.092716672 0.30335453 0.99783784 7.3756504e-39
-0.087315716 0.30335465 0.9978382 7.3756504e-39
-0.081914783 0.30335477 0.9978385 7.3756504e-39
-0.077414006 0.30335486 0.99783891 7.3756504e-39
-0.072913207 0.30335495 0.99783921 7.3756504e-39
-0.067512251 0.30335507 0.99783963 7.3756504e-39
-0.062111307 0.30335522 0.99784011 7.3756504e-39
-0.057610501 0.30335528 0.99784034 7.3756504e-39
-0.053109694 0.30335543 0.99784064 7.3756504e-39
-0.047708731 0.30335549 0.99784106 7.3756504e-39
-0.042307761 0.30335566 0.99784154 7.3756504e-39
-0.036906783 0.30335578 0.99784184 7.3756504e-39
-0.032405965 0.30335584 0.99784213 7.3756504e-39
-0.027905146 0.30335596 0.99784249 7.3756504e-39
-0.02250416 0.30335608 0.99784297 7.3756504e-39
-0.017103167 0.30335617 0.99784327 7.3756504e-39
-0.012602338 0.30335629 0.99784356 7.3756504e-39
-0.0081015062 0.30335641 0.99784398 7.3756504e-39
-0.002700503 0.3033565 0.9978444 7.3756504e-39
0.0027005041 0.30335662 0.9978447 7.3756504e-39
0.0081015164 0.30335677 0.99784517 7.3756504e-39
0.012602363 0.30335686 0.99784547 7.3756504e-39
0.017103212 0.30335695 0.99784583 7.3756504e-39
0.022504233 0.30335709 0.99784613 7.3756504e-39
0.027905263 0.30335721 0.9978466 7.3756504e-39
0.032406121 0.3033573 0.9978469 7.3756504e-39
0.03690698 0.30335736 0.99784726 7.3756504e-39
0.042308021 0.30335751 0.99784756 7.3756504e-39
0.047709063 0.30335763 0.99784803 7.3756504e-39
0.053110112 0.30335775 0.99784833 7.3756504e-39
0.057610985 0.30335784 0.99784869 7.3756504e-39
0.062111866 0.30335796 0.99784905 7.3756504e-39
0.067512929 0.30335808 0.99784946 7.3756504e-39
0.072913982 0.30335817 0.99784976 7.3756504e-39
0.07741487 0.30335826 0.99785012 7.3756504e-39
0.081915766 0.30335841 0.9978506 7.3756504e-39
0.087316841 0.3033585 0.99785089 7.3756504e-39
0.092717916 0.30335864 0.99785119 7.3756504e-39
0.098118998 0.30335876 0.99785167 7.3756504e-39
0.10261991 0.30335885 0.99785203 7.3756504e-39
0.10712081 0.30335894 0.99785233 7.3756504e-39
0.11252191 0.30335903 0.99785262 7.3756504e-39
0.117923 0.30335918 0.9978531 7.3756504e-39
0.12242392 0.30335927 0.9978534 7.3756504e-39
0.12692484 0.30335936 0.9978537 7.3756504e-39
0.13232595 0.30335948 0.99785405 7.3756504e-39
0.13772707 0.3033596 0.99785453 7.3756504e-39
0.14312817 0.30335972 0.99785489 7.3756504e-39
0.14762911 0.30335981 0.99785519 7.3756504e-39
0.15213005 0.30335993 0.9978556 7.3756504e-39
0.15753119 0.30336004 0.99785596 7.3756504e-39
0.16293232 0.30336019 0.99785632 7.3756504e-39
0.16743326 0.30336022 0.99785662 7.3756504e-39
0.17193423 0.30336037 0.99785703 7.3756504e-39
0.17733537 0.30336049 0.99785739 7.3756504e-39
0.1827365 0.30336061 0.99785775 7.3756504e-39
0.18813767 0.30336073 0.99785823 7.3756504e-39
0.19263862 0.30336082 0.99785852 7.3756504e-39
0.19713958 0.30336091 0.99785882 7.3756504e-39
0.20254074 0.30336103 0.99785918 7.3756504e-39
0.20794193 0.30336118 0.99785966 7.3756504e-39
0.2124429 0.30336124 0.99785995 7.3756504e-39
0.21694387 0.30336133 0.99786025 7.3756504e-39
0.22234507 0.30336151 0.99786067 7.3756504e-39
0.22774625 0.30336162 0.99786109 7.3756504e-39
0.23314743 0.30336174 0.99786144 7.3756504e-39
0.23764843 0.3033618 0.99786174 7.3756504e-39
0.24214943 0.30336192 0.99786216 7.3756504e-39
0.24755062 0.30336204 0.99786252 7.3756504e-39
0.25295183 0.30336216 0.99786288 7.3756504e-39
0.25745285 0.30336225 0.99786323 7.3756504e-39
0.26195386 0.30336237 0.99786359 7.3756504e-39
0.26735508 0.30336249 0.99786395 7.3756504e-39
0.27275625 0.30336258 0.99786431 7.3756504e-39
0.27815753 0.30336273 0.99786478 7.3756504e-39
0.28265852 0.30336285 0.99786508 7.3756504e-39
0.28715956 0.30336294 0.99786538 7.3756504e-39
0.29256079 0.30336305 0.99786574 7.3756504e-39
0.29796204 0.30336317 0.99786621 7.3756504e-39
0.30246305 0.30336326 0.99786651 7.3756504e-39
0.30696407 0.30336332 0.99786681 7.3756504e-39
0.31236535 0.30336347 0.99786717 7.3756504e-39
0.31776661 0.30336359 0.99786758 7.3756504e-39
0.32316786 0.30336371 0.99786788 7.3756504e-39
0.32766891 0.3033638 0.99786824 7.3756504e-39
0.33216998 0.30336392 0.99786872 7.3756504e-39
0.33757123 0.30336401 0.99786901 7.3756504e-39
0.34297249 0.30336413 0.99786931 7.3756504e-39
0.34747356 0.30336422 0.99786973 7.3756504e-39
0.35197464 0.30336437 0.99787015 7.3756504e-39
0.35737595 0.30336443 0.99787045 7.3756504e-39
0.3627772 0.30336455 0.99787074 7.3756504e-39
0.36817852 0.30336472 0.99787122 7.3756504e-39
0.37267959 0.30336481 0.99787158 7.3756504e-39
0.3771807 0.30336487 0.99787188 7.3756504e-39
0.38258198 0.30336502 0.99787229 7.3756504e-39
0.38798332 0.30336514 0.99787265 7.3756504e-39
0.3924844 0.30336523 0.99787301 7.3756504e-39
0.39698544 0.30336532 0.99787331 7.3756504e-39
0.40238681 0.30336544 0.99787378 7.3756504e-39
0.40778816 0.30336559 0.99787408 7.3756504e-39
0.4131895 0.30336568 0.9978745 7.3756504e-39
0.41769058 0.30336577 0.9978748 7.3756504e-39
0.42219171 0.30336592 0.99787521 7.3756504e-39
0.42759308 0.30336604 0.99787551 7.3756504e-39
0.43299437 0.30336615 0.99787593 7.3756504e-39
0.43749553 0.30336624 0.99787629 7.3756504e-39
0.44199666 0.30336633 0.99787664 7.3756504e-39
0.44739795 0.30336645 0.99787694 7.3756504e-39
0.45279932 0.30336657 0.99787736 7.3756504e-39
0.45730051 0.30336666 0.99787778 7.3756504e-39
0.46180165 0.30336678 0.99787807 7.3756504e-39
0.46720299 0.30336687 0.99787837 7.3756504e-39
0.47260436 0.30336699 0.99787885 7.3756504e-39
0.47800577 0.30336714 0.99787927 7.3756504e-39
0.48250693 0.3033672 0.99787956 7.3756504e-39
0.48700806 0.30336729 0.9978798 7.3756504e-39
0.49240944 0.30336741 0.99788022 7.3756504e-39
0.49781084 0.30336753 0.99788064 7.3756504e-39
0.502312 0.30336761 0.99788094 7.3756504e-39
0.50681317 0.30336776 0.99788123 7.3756504e-39
0.5122146 0.30336788 0.99788171 7.3756504e-39
0.51761597 0.30336797 0.99788207 7.3756504e-39
0.52301741 0.30336809 0.99788243 7.3756504e-39
0.52751863 0.30336821 0.99788284 7.3756504e-39
0.53201979 0.3033683 0.99788314 7.3756504e-39
0.53742123 0.30336842 0.9978835 7.3756504e-39
0.5428226 0.30336854 0.99788386 7.3756504e-39
0.54732382 0.30336866 0.99788427 7.3756504e-39
0.55182505 0.30336878 0.99788457 7.3756504e-39
0.55722648 0.30336884 0.99788493 7.3756504e-39
0.56262797 0.30336899 0.99788541 7.3756504e-39
0.5680294 0.30336913 0.99788576 7.3756504e-39
0.57253063 0.30336922 0.99788606 7.3756504e-39
0.57523131 0.30336925 0.99788624 7.3756504e-39
-0.57689917 0.3033928 1.0039217 7.3756504e-39
-0.57237113 0.30339289 1.003922 7.3756504e-39
-0.56784296 0.30339301 1.0039223 7.3756504e-39
-0.56240934 0.3033931 1.0039228 7.3756504e-39
-0.55697566 0.30339324 1.0039233 7.3756504e-39
-0.55244756 0.30339336 1.0039234 7.3756504e-39
-0.54791945 0.30339345 1.0039238 7.3756504e-39
-0.54248577 0.30339357 1.0039243 7.3756504e-39
-0.53705215 0.30339369 1.0039246 7.3756504e-39
-0.53252399 0.30339378 1.003925 7.3756504e-39
-0.52799594 0.30339393 1.0039253 7.3756504e-39
-0.52256221 0.30339399 1.0039257 7.3756504e-39
-0.51712847 0.30339411 1.0039262 7.3756504e-39
-0.51260042 0.30339426 1.0039265 7.3756504e-39
-0.50807232 0.30339432 1.0039268 7.3756504e-39
-0.50263852 0.30339444 1.0039271 7.3756504e-39
-0.49720481 0.30339456 1.0039276 7.3756504e-39
-0.49267673 0.30339468 1.0039279 7.3756504e-39
-0.48814857 0.30339476 1.0039282 7.3756504e-39
-0.4827148 0.30339488 1.0039285 7.3756504e-39
-0.47728109 0.303395 1.003929 7.3756504e-39
-0.47184739 0.30339512 1.0039295 7.3756504e-39
-0.46731919 0.30339521 1.0039296 7.3756504e-39
-0.46279106 0.3033953 1.00393 7.3756504e-39
-0.45735732 0.30339548 1.0039304 7.3756504e-39
-0.45192352 0.30339557 1.0039308 7.3756504e-39
-0.44739538 0.30339563 1.003931 7.3756504e-39
-0.44286725 0.30339575 1.0039314 7.3756504e-39
-0.43743345 0.3033959 1.0039319 7.3756504e-39
-0.43199968 0.30339602 1.0039324 7.3756504e-39
-0.42747155 0.30339611 1.0039327 7.3756504e-39
-0.42294335 0.3033962 1.003933 7.3756504e-39
-0.41750956 0.30339631 1.0039333 7.3756504e-39
-0.41207579 0.30339646 1.0039338 7.3756504e-39
-0.40754759 0.30339652 1.0039341 7.3756504e-39
-0.40301943 0.30339667 1.0039344 7.3756504e-39
-0.3975856 0.30339673 1.0039347 7.3756504e-39
-0.3921518 0.30339691 1.0039352 7.3756504e-39
-0.38762361 0.303397 1.0039356 7.3756504e-39
-0.38309541 0.30339709 1.0039358 7.3756504e-39
-0.37766159 0.30339721 1.0039363 7.3756504e-39
-0.37222776 0.30339733 1.0039366 7.3756504e-39
-0.36769956 0.30339742 1.003937 7.3756504e-39
-0.36317134 0.30339751 1.0039372 7.3756504e-39
-0.35773754 0.30339766 1.0039377 7.3756504e-39
-0.35230365 0.30339774 1.0039381 7.3756504e-39
-0.3468698 0.30339786 1.0039386 7.3756504e-39
-0.3423416 0.30339801 1.0039389 7.3756504e-39
-0.33781338 0.3033981 1.0039392 7.3756504e-39
-0.33237949 0.30339822 1.0039395 7.3756504e-39
-0.32694563 0.30339828 1.00394 7.3756504e-39
